15.610445726407 15.8043313417982 15.99812516236 16.1917651353902 16.3851885247761 16.5783319421661 16.7711313790276 16.9635222395724 17.1554393745299 17.3468171157447 17.5375893115754 17.7276893630723 17.9170502609056 18.1056046230198 18.2932847329863 18.4800225790246 18.665749893663 18.8503981940084 19.0338988225928 19.2161829887642 19.3971818105882 19.5768263572256 19.7550476917514 19.9317769143779 20.106945206046 20.280483872346 20.4523243877304 20.6223984399795 20.7906379748794 20.9569752410727 21.1213428350416 21.2836737461807 21.4439014019196 21.6019597128519 21.7577831178285 21.9113066289727 22.0624658765746 22.2111971538205 22.3574374613147 22.5011245513516 22.6421969718919 22.7805941102029 22.9162562361171 23.0491245448675 23.1791411994563 23.3062493725139 23.4303932876074 23.5515182599545 23.6695707365031 23.7844983353347 23.8962498843515 24.0047754592062 24.1100264204373 24.2119554497683 24.3105165855364 24.4056652572102 24.4973583189628 24.5855540822628 24.6702123474508 24.7512944342664 24.8287632112933 24.9025831242927 24.9727202233925 25.0391421891048 25.1018183571438 25.1607197420158 25.2158190593583 25.2670907470015 25.3145109847324 25.3580577127366 25.3977106487016 25.4334513035594 25.4652629958544 25.4931308647187 25.5170418814422 25.5369848596236 25.5529504638925 25.5649312171921 25.5729215066152 25.5769175877863 25.5769175877863 25.5729215066152 25.5649312171921 25.5529504638925 25.5369848596236 25.5170418814422 25.4931308647187 25.4652629958544 25.4334513035594 25.3977106487016 25.3580577127366 25.3145109847324 25.2670907470015 25.2158190593583 25.1607197420158 25.1018183571438 25.0391421891048 24.9727202233925 24.9025831242927 24.8287632112933 24.7512944342664 24.6702123474508 24.5855540822628 24.4973583189628 24.4056652572102 24.3105165855364 24.2119554497683 24.1100264204373 24.0047754592062 23.8962498843515 23.7844983353347 23.6695707365031 23.5515182599545 23.4303932876074 23.3062493725139 23.1791411994563 23.0491245448675 22.9162562361171 22.7805941102029 22.6421969718919 22.5011245513516 22.3574374613147 22.2111971538205 22.0624658765746 21.9113066289727 21.7577831178285 21.6019597128519 21.4439014019196 21.2836737461807 21.1213428350416 20.9569752410727 20.7906379748794 20.6223984399795 20.4523243877304 20.280483872346 20.106945206046 19.9317769143779 19.7550476917514 19.5768263572256 19.3971818105882 19.2161829887642 19.0338988225928 18.8503981940084 18.665749893663 18.4800225790246 18.2932847329863 18.1056046230198 17.9170502609056 17.7276893630723 17.5375893115754 17.3468171157447 17.1554393745299 16.9635222395724 16.7711313790276 16.5783319421661 16.3851885247761 16.1917651353902 15.99812516236 15.8043313417982 15.610445726407 15.4165296552142 15.2226437242302 15.028847758046 14.8352007823832 14.6417609976128 14.4485857532529 14.2557315234575 14.0632538835063 13.8712074873034 13.6796460458936 13.4886223070011 13.2981880355975 13.108393995501 12.9192899320109 12.7309245555788 12.543345526516
15.5739015861287 15.7673333142158 15.9606734623657 16.1538601231418 16.3468307072973 16.5395219748729 16.7318700671802 16.9238105396503 17.1152783955274 17.3062081203854 17.4965337174446 17.6861887436635 17.8751063465816 18.0632193018852 18.2504600516704 18.4367607433724 18.6220532693341 18.8062693069813 18.9893403595735 19.1711977974979 19.3517729000731 19.5309968978276 19.7088010152179 19.8851165137513 20.0598747354742 20.233007146791 20.4044453825731 20.5741212905199 20.7419669757327 20.9079148454606 21.0718976539777 21.2338485475509 21.3937011094565 21.5513894050037 21.7068480265224 21.8600121382731 22.0108175212356 22.159200617734 22.305098575855 22.4484492936148 22.5891914628339 22.7272646126743 22.8626091527971 22.9951664160977 23.1248787009748 23.2516893130923 23.37554260659 23.4963840247031 23.6141601397474 23.7288186924309 23.8403086304498 23.9485801463302 24.0535847144755 24.1552751273819 24.2536055309829 24.3485314590871 24.440009866872 24.5279991633996 24.6124592431179 24.6933515163172 24.7706389385062 24.8442860386786 24.9142589464393 24.9805254179604 25.0430548607414 25.1018183571438 25.1567886866778 25.2079403470151 25.2552495737057 25.2986943585775 25.3382544667988 25.3739114525847 25.4056486735311 25.4334513035594 25.4573063444597 25.4772026360182 25.4931308647187 25.5050835710082 25.5130551551193 25.5170418814422 25.5170418814422 25.5130551551193 25.5050835710082 25.4931308647187 25.4772026360182 25.4573063444597 25.4334513035594 25.4056486735311 25.3739114525847 25.3382544667988 25.2986943585775 25.2552495737057 25.2079403470151 25.1567886866778 25.1018183571438 25.0430548607414 24.9805254179604 24.9142589464393 24.8442860386786 24.7706389385062 24.6933515163172 24.6124592431179 24.5279991633996 24.440009866872 24.3485314590871 24.2536055309829 24.1552751273819 24.0535847144755 23.9485801463302 23.8403086304498 23.7288186924309 23.6141601397474 23.4963840247031 23.37554260659 23.2516893130923 23.1248787009748 22.9951664160977 22.8626091527971 22.7272646126743 22.5891914628339 22.4484492936148 22.305098575855 22.159200617734 22.0108175212356 21.8600121382731 21.7068480265224 21.5513894050037 21.3937011094565 21.2338485475509 21.0718976539777 20.9079148454606 20.7419669757327 20.5741212905199 20.4044453825731 20.233007146791 20.0598747354742 19.8851165137513 19.7088010152179 19.5309968978276 19.3517729000731 19.1711977974979 18.9893403595735 18.8062693069813 18.6220532693341 18.4367607433724 18.2504600516704 18.0632193018852 17.8751063465816 17.6861887436635 17.4965337174446 17.3062081203854 17.1152783955274 16.9238105396503 16.7318700671802 16.5395219748729 16.3468307072973 16.1538601231418 15.9606734623657 15.7673333142158 15.5739015861287 15.3804394735372 15.1870074305962 14.9936651418467 14.8004714948311 14.6074845536729 14.4147615336345 14.2223587766639 14.0303317279384 13.8387349134173 13.6476219184074 13.4570453671502 13.2670569034353 13.0777071722424 12.8890458024168 12.7011213903787 12.5139814848663
15.5350154600742 15.7279642128117 15.9208216142761 16.1135259116058 16.3060146718317 16.4982248128971 16.6900926355608 16.8815538561642 17.0725436402404 17.2629966369447 17.4528470142834 17.6420284951151 17.8304743939018 18.0181176541806 18.2048908867313 18.3907264084088 18.5755562816126 18.7593123543613 18.9419263009426 19.1233296631035 19.3034538917495 19.4822303891181 19.6595905513901 19.8354658117042 20.0097876835375 20.1824878044142 20.3534979799051 20.5227502278776 20.6901768229584 20.8557103411672 21.0192837046825 21.1808302266968 21.3402836563208 21.4975782234947 21.6526486838633 21.8054303635738 21.9558592039532 22.1038718060214 22.2494054747985 22.3923982633618 22.5327890166109 22.6705174146959 22.8055240160679 22.9377503001067 23.0671387092849 23.1936326908252 23.3171767378084 23.4377164296911 23.5551984721917 23.6695707365031 23.7807822977928 23.8887834729502 23.9935258575411 24.0949623619331 24.1930472465518 24.2877361562322 24.3789861536296 24.4667557516534 24.5510049448903 24.6316952399845 24.7087896849401 24.7822528973176 24.852051091292 24.9181521035446 24.9805254179604 25.0391421891048 25.0939752644542 25.1449992053565 25.1921903066985 25.23552661526 25.2749879467332 25.31055590139 25.3422138783802 25.3699470886443 25.3937425664272 25.413589179381 25.429477637244 25.4414004990889 25.4493521791301 25.4533289510854 25.4533289510854 25.4493521791301 25.4414004990889 25.429477637244 25.413589179381 25.3937425664272 25.3699470886443 25.3422138783802 25.31055590139 25.2749879467332 25.23552661526 25.1921903066985 25.1449992053565 25.0939752644542 25.0391421891048 24.9805254179604 24.9181521035446 24.852051091292 24.7822528973176 24.7087896849401 24.6316952399845 24.5510049448903 24.4667557516534 24.3789861536296 24.2877361562322 24.1930472465518 24.0949623619331 23.9935258575411 23.8887834729502 23.7807822977928 23.6695707365031 23.5551984721917 23.4377164296911 23.3171767378084 23.1936326908252 23.0671387092849 22.9377503001067 22.8055240160679 22.6705174146959 22.5327890166109 22.3923982633618 22.2494054747985 22.1038718060214 21.9558592039532 21.8054303635738 21.6526486838633 21.4975782234947 21.3402836563208 21.1808302266968 21.0192837046825 20.8557103411672 20.6901768229584 20.5227502278776 20.3534979799051 20.1824878044142 20.0097876835375 19.8354658117042 19.6595905513901 19.4822303891181 19.3034538917495 19.1233296631035 18.9419263009426 18.7593123543613 18.5755562816126 18.3907264084088 18.2048908867313 18.0181176541806 17.8304743939018 17.6420284951151 17.4528470142834 17.2629966369447 17.0725436402404 16.8815538561642 16.6900926355608 16.4982248128971 16.3060146718317 16.1135259116058 15.9208216142761 15.7279642128117 15.5350154600742 15.3420363986985 15.1490873318931 14.9562277951741 14.7635165290487 14.5710114526614 14.3787696384152 14.1868472875791 13.9952997068907 13.8041812861645 13.6135454769114 13.4234447719766 13.2339306862015 13.0450537381114 12.8568634326347 12.6694082448519 12.4827356047781
15.4938053316905 15.6862422443921 15.8785880481503 16.0707811539171 16.2627592943408 16.4544595547041 16.6458184047424 16.836771731324 17.0272548719699 17.2172026491934 17.4065494056349 17.5952290399681 17.7831750435533 17.9703205378102 18.1565983122835 18.341940863373 18.5262804336979 18.7095490520654 18.8916785740123 19.0726007228868 19.2522471314362 19.4305493838691 19.6074390583533 19.7828477699166 19.9567072137119 20.1289492086105 20.2995057410841 20.4683090093381 20.635291467656 20.8003858709148 20.963525319232 21.1246433027019 21.2836737461807 21.4405510540783 21.595210155115 21.747586547 21.8976163409903 22.0452363062858 22.1903839142192 22.3329973821961 22.4730157173436 22.610378759824 22.7450272257702 22.8769027498014 23.0059479270745 23.132106354831 23.2553226733964 23.37554260659 23.4927130015054 23.6067818676188 23.7176984151874 23.8254130928962 23.9298776247146 24.0310450459262 24.1288697382908 24.2233074643059 24.3143154005276 24.401852169919 24.4858778731905 24.5663541190982 24.64324405367 24.7165123883262 24.7861254268663 24.852051091292 24.9142589464393 24.9727202233925 25.0274078416562 25.0782964300601 25.1253623463741 25.168583695614 25.2079403470151 25.2434139496591 25.2749879467331 25.302647588409 25.3263799433263 25.346173908668 25.362020218817 25.3739114525847 25.3818420390033 25.3858082616749 25.3858082616749 25.3818420390033 25.3739114525847 25.362020218817 25.346173908668 25.3263799433263 25.302647588409 25.2749879467331 25.2434139496591 25.2079403470151 25.168583695614 25.1253623463741 25.0782964300601 25.0274078416562 24.9727202233925 24.9142589464393 24.852051091292 24.7861254268663 24.7165123883262 24.64324405367 24.5663541190982 24.4858778731905 24.401852169919 24.3143154005276 24.2233074643059 24.1288697382908 24.0310450459262 23.9298776247146 23.8254130928962 23.7176984151874 23.6067818676188 23.4927130015054 23.37554260659 23.2553226733964 23.132106354831 23.0059479270745 22.8769027498014 22.7450272257702 22.610378759824 22.4730157173436 22.3329973821961 22.1903839142192 22.0452363062858 21.8976163409903 21.747586547 21.595210155115 21.4405510540783 21.2836737461807 21.1246433027019 20.963525319232 20.8003858709148 20.635291467656 20.4683090093381 20.2995057410841 20.1289492086105 19.9567072137119 19.7828477699166 19.6074390583533 19.4305493838691 19.2522471314362 19.0726007228868 18.8916785740123 18.7095490520654 18.5262804336979 18.341940863373 18.1565983122835 17.9703205378102 17.7831750435533 17.5952290399681 17.4065494056349 17.2172026491934 17.0272548719699 16.836771731324 16.6458184047424 16.4544595547041 16.2627592943408 16.0707811539171 15.8785880481503 15.6862422443921 15.4938053316905 15.3013381907513 15.108900964815 14.9165530314664 14.7243529753901 14.5323585620873 14.3406267125636 14.1492134790011 13.9581740214242 13.7675625853659 13.5774324805451 13.3878360605579 13.1988247035908 13.0104487941575 12.8227577058633 12.6357997851978 12.4496223363572
15.4502902259968 15.6421866702714 15.8339922614865 16.02564558357 16.217084544051 16.4082464049112 16.5990678143139 16.7894848391922 16.979432998675 17.1688472983296 17.3576622651982 17.5458119836034 17.7332301316983 17.9198500187342 18.1056046230198 18.2904266305419 18.4742484742195 18.6570023737605 18.8386203760886 19.0190343963102 19.1981762591856 19.3759777410722 19.5523706123039 19.7272866799711 19.9006578310643 20.0724160759445 20.242493592103 20.4108227681697 20.5773362481335 20.7419669757327 20.9046482389763 21.0653137147549 21.2238975135 21.3803342238499 21.5345589572807 21.6865073926595 21.8361158206778 21.9833211881225 22.1280611419409 22.2702740730581 22.4098991599026 22.5468764115986 22.6811467107807 22.8126518559899 22.9413346036075 23.0671387092849 23.190008968828 23.3098912584933 23.4267325746569 23.540481072813 23.6510861058642 23.7584982616627 23.8626693997637 23.9635526873533 24.0611026343126 24.1552751273819 24.2460274633892 24.3333183815071 24.417108094505 24.4973583189628 24.5740323044144 24.6470948613899 24.7165123883262 24.7822528973176 24.8442860386786 24.9025831242927 24.9571171497213 25.00786281505 25.0547965444495 25.0978965044282 25.1371426207601 25.1725165940661 25.204001914034 25.2315838722612 25.2552495737057 25.2749879467332 25.2907897517495 25.302647588409 25.31055590139 25.3145109847324 25.3145109847324 25.31055590139 25.302647588409 25.2907897517495 25.2749879467332 25.2552495737057 25.2315838722612 25.204001914034 25.1725165940661 25.1371426207601 25.0978965044282 25.0547965444495 25.00786281505 24.9571171497213 24.9025831242927 24.8442860386786 24.7822528973176 24.7165123883262 24.6470948613899 24.5740323044144 24.4973583189628 24.417108094505 24.3333183815071 24.2460274633892 24.1552751273819 24.0611026343126 23.9635526873533 23.8626693997637 23.7584982616627 23.6510861058642 23.540481072813 23.4267325746569 23.3098912584933 23.190008968828 23.0671387092849 22.9413346036075 22.8126518559899 22.6811467107807 22.5468764115986 22.4098991599026 22.2702740730581 22.1280611419409 21.9833211881225 21.8361158206778 21.6865073926595 21.5345589572807 21.3803342238499 21.2238975135 21.0653137147549 20.9046482389763 20.7419669757327 20.5773362481335 20.4108227681697 20.242493592103 20.0724160759445 19.9006578310643 19.7272866799711 19.5523706123039 19.3759777410722 19.1981762591856 19.0190343963102 18.8386203760886 18.6570023737605 18.4742484742195 18.2904266305419 18.1056046230198 17.9198500187342 17.7332301316983 17.5458119836034 17.3576622651982 17.1688472983296 16.979432998675 16.7894848391922 16.5990678143139 16.4082464049112 16.217084544051 16.02564558357 15.8339922614865 15.6421866702714 15.4502902259968 15.258363638382 15.0664668817524 14.8746591669279 14.6829989140554 14.4915437263985 14.3003503650975 14.1094747249094 13.9189718109387 13.7288957163675 13.5392996011915 13.3502356719694 13.1617551625894 12.973908316058 12.7867443673122 12.6003115270581 12.4146569666359
15.4044901949476 15.5958177914544 15.7870548042219 15.9781399992363 16.1690114680905 16.3596066587436 16.5498624071556 16.7397149697796 16.9291000568879 17.1179528667143 17.3062081203854 17.4938000976208 17.6806626731746 17.8667293539926 18.0519333170592 18.2362074479033 18.4194843797363 18.6016965331902 18.7827761566255 18.9626553669758 19.1412661910964 19.3185406075835 19.4944105890273 19.6688081446657 19.8416653633999 20.0129144571358 20.1824878044142 20.3503179942886 20.5163378704144 20.6804805753082 20.8426795947364 21.0028688021944 21.1609825034332 21.3169554809932 21.4707230387026 21.6222210460987 21.7713859827296 21.9181549822937 22.0624658765746 22.204257239128 22.3434684286788 22.4800396321848 22.6139119075252 22.7450272257702 22.8733285129913 22.9987596915676 23.1212657209492 23.2407926378346 23.3572875957208 23.4706989037871 23.580976065072 23.6880698139022 23.791932152538 23.8925163869941 23.9897771620003 24.083670495064 24.1741538096002 24.2611859670928 24.3447272982544 24.4247396331504 24.5011863302557 24.5740323044144 24.64324405367 24.7087896849401 24.7706389385062 24.8287632112933 24.8831355789134 24.93373081645 24.9805254179604 25.0234976146754 25.0626273918758 25.0978965044282 25.1292884909628 25.1567886866778 25.1803842347566 25.2000640963849 25.2158190593582 25.2276417452679 25.23552661526 25.2394699743606 25.2394699743606 25.23552661526 25.2276417452679 25.2158190593582 25.2000640963849 25.1803842347566 25.1567886866778 25.1292884909628 25.0978965044282 25.0626273918758 25.0234976146754 24.9805254179604 24.93373081645 24.8831355789134 24.8287632112933 24.7706389385062 24.7087896849401 24.64324405367 24.5740323044144 24.5011863302557 24.4247396331504 24.3447272982544 24.2611859670928 24.1741538096002 24.083670495064 23.9897771620003 23.8925163869941 23.791932152538 23.6880698139022 23.580976065072 23.4706989037871 23.3572875957208 23.2407926378346 23.1212657209492 22.9987596915676 22.8733285129913 22.7450272257702 22.6139119075252 22.4800396321848 22.3434684286788 22.204257239128 22.0624658765746 21.9181549822937 21.7713859827296 21.6222210460987 21.4707230387026 21.3169554809932 21.1609825034332 21.0028688021944 20.8426795947364 20.6804805753082 20.5163378704144 20.3503179942886 20.1824878044142 20.0129144571358 19.8416653633999 19.6688081446657 19.4944105890273 19.3185406075835 19.1412661910964 18.9626553669758 18.7827761566255 18.6016965331902 18.4194843797363 18.2362074479033 18.0519333170592 17.8667293539926 17.6806626731746 17.4938000976208 17.3062081203854 17.1179528667143 16.9291000568879 16.7397149697796 16.5498624071556 16.3596066587436 16.1690114680905 15.9781399992363 15.7870548042219 15.5958177914544 15.4044901949476 15.2131325444559 15.02180463652 14.8305655064383 14.63947340118 14.4485857532529 14.2579591555373 14.0676493370987 13.8777111399876 13.6881984970348 13.4991644106515 13.3106609326379 13.1227391450072 12.935449141828 12.7488400120881 12.5629598235802 12.3778556078122
15.3564263020355 15.5471569330477 15.7377972629528 15.9282862487948 16.1185621753284 16.3085626856826 16.4982248128971 16.6874850123124 16.8762791947929 17.0645427607616 17.2522106350233 17.439217302353 17.6254968438233 17.8109829738469 17.9956090779038 18.1793082509285 18.362013336325 18.5436569655811 18.7241715984507 18.9034895636709 19.0815431001816 19.2582643988139 19.433585644412 19.6074390583533 19.7797569414298 19.9504717170547 20.1195159747558 20.2868225139172 20.4523243877304 20.6159549473152 20.7776478859707 20.9373372835152 21.0949576506736 21.2504439734728 21.403731757601 21.5547570726904 21.7034565964806 21.8497676588207 21.9936282854666 22.1349772416321 22.2737540752501 22.4098991599026 22.5433537373754 22.6740599597961 22.8019609313136 22.9270007492763 23.0491245448675 23.1682785231577 23.2844100025314 23.3974674534499 23.5074005365079 23.6141601397474 23.7176984151874 23.8179688145337 23.9149261240298 24.008526498414 24.0987274939455 24.1854881004653 24.2687687724591 24.3485314590871 24.4247396331504 24.4973583189628 24.5663541190982 24.6316952399845 24.6933515163172 24.7512944342664 24.8054971534514 24.8559345276606 24.9025831242927 24.9454212424998 24.9844289300109 25.0195879986198 25.0508820383181 25.0782964300601 25.1018183571438 25.1214368151976 25.1371426207601 25.1489284184441 25.1567886866778 25.1607197420158 25.1607197420158 25.1567886866778 25.1489284184441 25.1371426207601 25.1214368151976 25.1018183571438 25.0782964300601 25.0508820383181 25.0195879986198 24.9844289300109 24.9454212424998 24.9025831242927 24.8559345276606 24.8054971534514 24.7512944342664 24.6933515163172 24.6316952399845 24.5663541190982 24.4973583189628 24.4247396331504 24.3485314590871 24.2687687724591 24.1854881004653 24.0987274939455 24.008526498414 23.9149261240298 23.8179688145337 23.7176984151874 23.6141601397474 23.5074005365079 23.3974674534499 23.2844100025314 23.1682785231577 23.0491245448675 22.9270007492763 22.8019609313136 22.6740599597961 22.5433537373754 22.4098991599026 22.2737540752501 22.1349772416321 21.9936282854666 21.8497676588207 21.7034565964806 21.5547570726904 21.403731757601 21.2504439734728 21.0949576506736 20.9373372835152 20.7776478859707 20.6159549473152 20.4523243877304 20.2868225139172 20.1195159747558 19.9504717170547 19.7797569414298 19.6074390583533 19.433585644412 19.2582643988139 19.0815431001816 18.9034895636709 18.7241715984507 18.5436569655811 18.362013336325 18.1793082509285 17.9956090779038 17.8109829738469 17.6254968438233 17.439217302353 17.2522106350233 17.0645427607616 16.8762791947929 16.6874850123124 16.4982248128971 16.3085626856826 16.1185621753284 15.9282862487948 15.7377972629528 15.5471569330477 15.3564263020355 15.1656657108106 14.9749347693411 14.784292328728 14.593796454203 14.4035043990771 14.2134725796543 14.0237565511184 13.834410984406 13.6454896440709 13.4570453671503 13.2691300430363 13.0817945943601 12.8950889588909 12.7090620724523 12.5237618528602 12.339235184878
15.3061206061494 15.4962264279168 15.6862422443921 15.8761072125881 16.0657598194309 16.2551379123226 16.4441787305746 16.6328189376917 16.8209946544862 17.0086414930008 17.1956945912187 17.3820886485341 17.5677579619619 17.7526364630577 17.9366577555224 18.1197551534627 18.3018617202793 18.4829103081505 18.6628335980836 18.841564140498 19.0190343963102 19.1951767784856 19.3699236940222 19.5432075863314 19.7149609779793 19.8851165137513 20.0536070040034 20.2203654682603 20.3853251790227 20.5484197057438 20.7095829589348 20.8687492343601 21.0258532572793 21.1808302266968 21.3336158595757 21.4841464349762 21.6323588380734 21.7781906040159 21.9215799615793 22.0624658765746 22.2007880949684 22.3364871856709 22.4695045829523 22.5997826284426 22.7272646126743 22.8518948161256 22.9736185497232 23.0923821947628 23.2081332422073 23.320820331322 23.4303932876074 23.5368031599898 23.640002257232 23.7399441835263 23.8365838732306 23.9298776247146 24.0197831332779 24.1062595231056 24.1892673782294 24.2687687724591 24.3447272982544 24.417108094505 24.4858778731905 24.5510049448903 24.6124592431179 24.6702123474508 24.7242375054342 24.7745096532321 24.8210054350055 24.8637032209956 24.9025831242927 24.9376270162728 24.9688185406844 24.9961431263721 25.0195879986198 25.0391421891048 25.0547965444495 25.066543733362 25.0743782523585 25.0782964300601 25.0782964300601 25.0743782523585 25.066543733362 25.0547965444495 25.0391421891048 25.0195879986198 24.9961431263721 24.9688185406844 24.9376270162728 24.9025831242927 24.8637032209956 24.8210054350055 24.7745096532321 24.7242375054342 24.6702123474508 24.6124592431179 24.5510049448903 24.4858778731905 24.417108094505 24.3447272982544 24.2687687724591 24.1892673782294 24.1062595231056 24.0197831332779 23.9298776247146 23.8365838732306 23.7399441835263 23.640002257232 23.5368031599898 23.4303932876074 23.320820331322 23.2081332422073 23.0923821947628 22.9736185497232 22.8518948161256 22.7272646126743 22.5997826284426 22.4695045829523 22.3364871856709 22.2007880949684 22.0624658765746 21.9215799615793 21.7781906040159 21.6323588380734 21.4841464349762 21.3336158595757 21.1808302266968 21.0258532572793 20.8687492343601 20.7095829589348 20.5484197057438 20.3853251790227 20.2203654682603 20.0536070040034 19.8851165137513 19.7149609779793 19.5432075863314 19.3699236940222 19.1951767784856 19.0190343963102 18.841564140498 18.6628335980836 18.4829103081505 18.3018617202793 18.1197551534627 17.9366577555224 17.7526364630577 17.5677579619619 17.3820886485341 17.1956945912187 17.0086414930008 16.8209946544862 16.6328189376917 16.4441787305746 16.2551379123226 16.0657598194309 15.8761072125881 15.6862422443921 15.4962264279168 15.3061206061494 15.1159849223151 14.9258787911073 14.7358608708385 14.5459890365259 14.356320353926 14.1669110545302 13.9778165115307 13.7890912167688 13.6007887586728 13.4129618011922 13.2256620637363 13.0389403021202 12.8528462905231 12.6674288044615 12.4827356047781 12.2988134226483
15.2535961447047 15.4430495996077 15.6324133580807 15.8216267859251 16.0106285811551 16.1993568044558 16.387748910508 16.5757417801618 16.7632717534373 16.950274663331 17.1366858704062 17.3224402981427 17.5074724690218 17.6917165413193 17.8751063465816 18.0575754277547 18.2390570779386 18.4194843797363 18.5987902451666 18.7769074561088 18.9537687052466 19.1293066374768 19.3034538917495 19.4761431433032 19.6473071462595 19.8168787765398 19.9847910750681 20.1509772912191 20.3153709264754 20.4779057782532 20.6385159838565 20.7971360645202 20.9537009695004 21.1081461201727 21.2604074540937 21.4104214689882 21.5581252666163 21.7034565964806 21.846353899331 21.9867563504232 22.1246039024913 22.2598373283895 22.3923982633618 22.5222292468987 22.6492737641368 22.7734762867613 22.8947823133698 23.013138409256 23.1284922455727 23.2407926378346 23.3499895837209 23.4560343001383 23.558879259507 23.6584782252308 23.754786286315 23.8477598910957 23.9373568800451 24.023536517618 24.1062595231056 24.1854881004653 24.2611859670928 24.3333183815071 24.401852169919 24.4667557516534 24.5279991633996 24.5855540822628 24.6393938475917 24.6894934815596 24.7358297084752 24.7783809728044 24.8171274558813 24.852051091292 24.8831355789134 24.9103663975922 24.93373081645 24.9532179048031 24.9688185406844 24.9805254179604 24.9883330520328 24.9922377841214 24.9922377841214 24.9883330520328 24.9805254179604 24.9688185406844 24.9532179048031 24.93373081645 24.9103663975922 24.8831355789134 24.852051091292 24.8171274558813 24.7783809728044 24.7358297084752 24.6894934815596 24.6393938475917 24.5855540822628 24.5279991633996 24.4667557516534 24.401852169919 24.3333183815071 24.2611859670928 24.1854881004653 24.1062595231056 24.023536517618 23.9373568800451 23.8477598910957 23.754786286315 23.6584782252308 23.558879259507 23.4560343001383 23.3499895837209 23.2407926378346 23.1284922455727 23.013138409256 22.8947823133698 22.7734762867613 22.6492737641368 22.5222292468987 22.3923982633618 22.2598373283895 22.1246039024913 21.9867563504232 21.846353899331 21.7034565964806 21.5581252666163 21.4104214689882 21.2604074540937 21.1081461201727 20.9537009695004 20.7971360645202 20.6385159838565 20.4779057782532 20.3153709264754 20.1509772912191 19.9847910750681 19.8168787765398 19.6473071462595 19.4761431433032 19.3034538917495 19.1293066374768 18.9537687052466 18.7769074561088 18.5987902451666 18.4194843797363 18.2390570779386 18.0575754277547 17.8751063465816 17.6917165413193 17.5074724690218 17.3224402981427 17.1366858704062 16.950274663331 16.7632717534373 16.5757417801618 16.387748910508 16.1993568044558 16.0106285811551 15.8216267859251 15.6324133580807 15.4430495996077 15.2535961447047 15.0641129302094 14.8746591669279 14.6852933118808 14.4960730414816 14.30705522566 14.1182959029434 13.9298502565055 13.7417725911936 13.5541163115417 13.3669339007781 13.1802769008317 12.9941958933441 12.8087404816894 12.6239592740061 12.439899867241 12.2566088322067
15.1988769160654 15.38765074455 15.5763351983726 15.7648698608477 15.9531936498982 16.141244848404 16.3289611354147 16.5162796182079 16.7031368651711 16.889468939487 17.0752114336001 17.2602995044392 17.4446679093729 17.6282510428714 17.8109829738469 17.9927974836469 18.1736281046692 18.3534081595694 18.5320708010312 18.7095490520654 18.8857758468071 19.0606840717763 19.2342066075674 19.4062763709329 19.5768263572256 19.7457896831612 19.9130996298658 20.0786896861688 20.242493592103 20.4044453825731 20.5644794311523 20.7225304939673 20.8785337536312 21.0324248631822 21.1841399899882 21.3336158595757 21.4807897993397 21.625599782094 21.7679844694199 21.90788325477 22.0452363062858 22.1799846092869 22.3120700083895 22.4414352492121 22.5680240196269 22.691780990516 22.8126518559899 22.9305833730286 23.0455234005041 23.1574209375454 23.2662261612048 23.3718904633889 23.4743664870133 23.5736081613466 23.6695707365031 23.7622108170519 23.8514863947042 23.9373568800451 24.0197831332779 24.0987274939455 24.1741538096002 24.2460274633892 24.3143154005276 24.3789861536296 24.440009866872 24.4973583189628 24.5510049448903 24.6009248564308 24.6470948613899 24.6894934815596 24.7281009693697 24.7628993232158 24.7938723014483 24.8210054350055 24.8442860386786 24.8637032209956 24.8792478927126 24.8909127739053 24.8986923996503 24.9025831242927 24.9025831242927 24.8986923996503 24.8909127739053 24.8792478927126 24.8637032209956 24.8442860386786 24.8210054350055 24.7938723014483 24.7628993232158 24.7281009693697 24.6894934815596 24.6470948613899 24.6009248564308 24.5510049448903 24.4973583189628 24.440009866872 24.3789861536296 24.3143154005276 24.2460274633892 24.1741538096002 24.0987274939455 24.0197831332779 23.9373568800451 23.8514863947042 23.7622108170519 23.6695707365031 23.5736081613466 23.4743664870133 23.3718904633889 23.2662261612048 23.1574209375454 23.0455234005041 22.9305833730286 22.8126518559899 22.691780990516 22.5680240196269 22.4414352492121 22.3120700083895 22.1799846092869 22.0452363062858 21.90788325477 21.7679844694199 21.625599782094 21.4807897993397 21.3336158595757 21.1841399899882 21.0324248631822 20.8785337536312 20.7225304939673 20.5644794311523 20.4044453825731 20.242493592103 20.0786896861688 19.9130996298658 19.7457896831612 19.5768263572256 19.4062763709329 19.2342066075674 19.0606840717763 18.8857758468071 18.7095490520654 18.5320708010312 18.3534081595694 18.1736281046692 17.9927974836469 17.8109829738469 17.6282510428714 17.4446679093729 17.2602995044392 17.0752114336001 16.889468939487 16.7031368651711 16.5162796182079 16.3289611354147 16.141244848404 15.9531936498982 15.7648698608477 15.5763351983726 15.38765074455 15.1988769160654 15.0100734347451 14.8212992989882 14.6326127561125 14.4440712756288 14.2557315234575 14.0676493370987 13.8798797017677 13.6924767275039 13.5054936272632 13.3189826960009 13.1329952907495 12.9475818116989 12.7627916842812 12.5786733422628 12.3952742118461 12.2126406967801
15.1419878612747 15.3300551135609 15.5180333257124 15.7058623071821 15.8934812045217 16.0808285316168 16.2678422007831 16.4544595547041 16.6406173991904 16.8262520367389 17.0112993008699 17.1956945912187 17.3793729093554 17.5622688953101 17.7443168647738 17.9254508469489 18.1056046230198 18.284711765214 18.4627056764232 18.6395196303515 18.8150868121602 18.9893403595735 19.162213404412 19.3336391145195 19.5035507360455 19.6718816360486 19.8385653453821 20.003535601825 20.1667263934198 20.3280720019771 20.4875070467083 20.6449665279465 20.8003858709148 20.9537009695004 21.1048482299958 21.253764614762 21.4003876857763 21.5446556480189 21.6865073926595 21.8258825399994 21.9627214821296 22.0969654252603 22.2285564316819 22.3574374613147 22.4835524128062 22.606846164134 22.7272646126743 22.8447547146945 22.9592645242298 23.0707432313042 23.1791411994563 23.2844100025314 23.386502460702 23.4853726756781 23.580976065072 23.6732693958809 23.7622108170519 23.8477598910957 23.9298776247146 24.008526498414 24.083670495064 24.1552751273819 24.2233074643059 24.2877361562322 24.3485314590871 24.4056652572102 24.4591110850223 24.5088441474555 24.5548413391235 24.5970812622106 24.6355442430613 24.6702123474508 24.7010693945217 24.7281009693697 24.7512944342664 24.7706389385062 24.7861254268663 24.7977466466707 24.8054971534514 24.8093733151989 24.8093733151989 24.8054971534514 24.7977466466707 24.7861254268663 24.7706389385062 24.7512944342664 24.7281009693697 24.7010693945217 24.6702123474508 24.6355442430613 24.5970812622106 24.5548413391235 24.5088441474555 24.4591110850223 24.4056652572102 24.3485314590871 24.2877361562322 24.2233074643059 24.1552751273819 24.083670495064 24.008526498414 23.9298776247146 23.8477598910957 23.7622108170519 23.6732693958809 23.580976065072 23.4853726756781 23.386502460702 23.2844100025314 23.1791411994563 23.0707432313042 22.9592645242298 22.8447547146945 22.7272646126743 22.606846164134 22.4835524128062 22.3574374613147 22.2285564316819 22.0969654252603 21.9627214821296 21.8258825399994 21.6865073926595 21.5446556480189 21.4003876857763 21.253764614762 21.1048482299958 20.9537009695004 20.8003858709148 20.6449665279465 20.4875070467083 20.3280720019771 20.1667263934198 20.003535601825 19.8385653453821 19.6718816360486 19.5035507360455 19.3336391145195 19.162213404412 18.9893403595735 18.8150868121602 18.6395196303515 18.4627056764232 18.284711765214 18.1056046230198 17.9254508469489 17.7443168647738 17.5622688953101 17.3793729093554 17.1956945912187 17.0112993008699 16.8262520367389 16.6406173991904 16.4544595547041 16.2678422007831 16.0808285316168 15.8934812045217 15.7058623071821 15.5180333257124 15.3300551135609 15.1419878612747 14.9538910671427 14.7658235087344 14.5778432153491 14.3900074413905 14.2023726406797 14.0149944417184 13.8279276239134 13.6412260947714 13.4549428680737 13.2691300430363 13.0838387844637 12.8991193038991 12.7150208417763 12.5315916505751 12.3488789789827 12.16692905706
15.0829548451156 15.2702888926704 15.4575342472251 15.6446309528932 15.8315183934717 16.0181353225576 16.2044198945238 16.3903096963314 16.5757417801618 16.7606526968449 16.9449785300626 17.1286549313028 17.3116171555408 17.4938000976208 17.6751383293129 17.8555661370151 18.0350175600745 18.2134264296961 18.3907264084088 18.5668510300583 18.741733740292 18.9153079375053 19.0875070142134 19.2582643988139 19.4275135977049 19.5951882377221 19.7612221088575 19.9255492072221 20.0881037782147 20.2488203598565 20.4076338262548 20.5644794311523 20.7192928515251 20.8720102311867 21.0225682243578 21.17090403916 21.3169554809932 21.4606609957538 21.6019597128519 21.7407914879873 21.87709694564 22.0108175212356 22.1418955029421 22.2702740730581 22.3958973489494 22.5187104234941 22.6386594049946 22.7556914565161 22.869754834612 22.9807989273956 23.0887742919196 23.1936326908252 23.2953271282215 23.393811884759 23.4890425518603 23.580976065072 23.6695707365031 23.754786286315 23.8365838732306 23.9149261240298 23.9897771620003 24.0611026343126 24.1288697382908 24.1930472465518 24.2536055309829 24.3105165855364 24.3637540478125 24.4132932194101 24.4591110850223 24.5011863302557 24.539499358155 24.5740323044144 24.6047690512595 24.6316952399845 24.6547982821308 24.6740673692959 24.6894934815596 24.7010693945217 24.7087896849401 24.712650734965 24.712650734965 24.7087896849401 24.7010693945217 24.6894934815596 24.6740673692959 24.6547982821308 24.6316952399845 24.6047690512595 24.5740323044144 24.539499358155 24.5011863302557 24.4591110850223 24.4132932194101 24.3637540478125 24.3105165855364 24.2536055309829 24.1930472465518 24.1288697382908 24.0611026343126 23.9897771620003 23.9149261240298 23.8365838732306 23.754786286315 23.6695707365031 23.580976065072 23.4890425518603 23.393811884759 23.2953271282215 23.1936326908252 23.0887742919196 22.9807989273956 22.869754834612 22.7556914565161 22.6386594049946 22.5187104234941 22.3958973489494 22.2702740730581 22.1418955029421 22.0108175212356 21.87709694564 21.7407914879873 21.6019597128519 21.4606609957538 21.3169554809932 21.17090403916 21.0225682243578 20.8720102311867 20.7192928515251 20.5644794311523 20.4076338262548 20.2488203598565 20.0881037782147 19.9255492072221 19.7612221088575 19.5951882377221 19.4275135977049 19.2582643988139 19.0875070142134 18.9153079375053 18.741733740292 18.5668510300583 18.3907264084088 18.2134264296961 18.0350175600745 17.8555661370151 17.6751383293129 17.4938000976208 17.3116171555408 17.1286549313028 16.9449785300626 16.7606526968449 16.5757417801618 16.3903096963314 16.2044198945238 16.0181353225576 15.8315183934717 15.6446309528932 15.4575342472251 15.2702888926704 15.0829548451156 14.8955913708878 14.7082570184044 14.5210095907299 14.3339061190542 14.1470028371059 13.9603551565118 13.7740176431138 13.5880439942533 13.4024870170304 13.2173986075455 13.0328297311305 12.8488304035723 12.6654496733344 12.4827356047781 12.3007352623854 12.1194946959832
15.02180463652 15.2083791832871 15.3948653966385 15.5812035637645 15.7673333142158 15.9531936498982 16.1387229759228 16.3238591322894 16.5085394263861 16.6927006662822 16.8762791947929 17.0592109242917 17.241431372247 17.4228756974562 17.6034787369523 17.7831750435533 17.9618989240281 18.1395844778468 18.3161656364879 18.491576203268 18.665749893663 18.8386203760886 19.010121313104 19.1801864030053 19.3487494217729 19.5157442653365 19.6811049921207 19.8447658658333 20.0066613984593 20.1667263934198 20.3248959888593 20.4811057010185 20.6352914676559 20.7873896914746 20.9373372835152 21.085071706474 21.2305310179041 21.3736539132579 21.5143797687309 21.6526486838633 21.7884015238589 21.9215799615793 22.0521265191712 22.1799846092869 22.305098575855 22.4274137343611 22.5468764115986 22.6634339848474 22.7770349204421 22.8876288116897 22.9951664160977 23.0995996918738 23.2008818336607 23.2989673074669 23.393811884759 23.4853726756781 23.5736081613466 23.6584782252308 23.7399441835263 23.8179688145337 23.8925163869941 23.9635526873533 24.0310450459262 24.0949623619331 24.1552751273819 24.2119554497683 24.2649770735726 24.3143154005276 24.3599475086361 24.401852169919 24.440009866872 24.474402807616 24.5050149397221 24.5318319626985 24.5548413391235 24.5740323044144 24.5893958752204 24.6009248564308 24.6086138467906 24.6124592431179 24.6124592431179 24.6086138467906 24.6009248564308 24.5893958752204 24.5740323044144 24.5548413391235 24.5318319626985 24.5050149397221 24.474402807616 24.440009866872 24.401852169919 24.3599475086361 24.3143154005276 24.2649770735726 24.2119554497683 24.1552751273819 24.0949623619331 24.0310450459262 23.9635526873533 23.8925163869941 23.8179688145337 23.7399441835263 23.6584782252308 23.5736081613466 23.4853726756781 23.393811884759 23.2989673074669 23.2008818336607 23.0995996918738 22.9951664160977 22.8876288116897 22.7770349204421 22.6634339848474 22.5468764115986 22.4274137343611 22.305098575855 22.1799846092869 22.0521265191712 21.9215799615793 21.7884015238589 21.6526486838633 21.5143797687309 21.3736539132579 21.2305310179041 21.085071706474 20.9373372835152 20.7873896914746 20.6352914676559 20.4811057010185 20.3248959888593 20.1667263934198 20.0066613984593 19.8447658658333 19.6811049921207 19.5157442653365 19.3487494217729 19.1801864030053 19.010121313104 18.8386203760886 18.665749893663 18.491576203268 18.3161656364879 18.1395844778468 17.9618989240281 17.7831750435533 17.6034787369523 17.4228756974562 17.241431372247 17.0592109242917 16.8762791947929 16.6927006662822 16.5085394263861 16.3238591322894 16.1387229759228 15.9531936498982 15.7673333142158 15.5812035637645 15.3948653966385 15.2083791832871 15.02180463652 14.8352007823832 14.6486259319237 14.4621376538574 14.275792748155 14.0896472205589 13.9037562580429 13.7181742052247 13.532954541743 13.3481498606039 13.1638118475079 12.97999126116 12.7967379145702 12.6141006573468 12.4321273589858 12.2508648931575 12.0703591229908
14.9585648883477 15.1443539817264 15.3300551135609 15.5156088224245 15.7009549920191 15.8860328810443 16.0707811539171 16.2551379123226 16.4390407275761 16.6224266737764 16.8052323617268 16.9873939736008 17.1688472983296 17.3495277676832 17.5293704930217 17.708310302687 17.8862817800073 18.0632193018852 18.2390570779386 18.4137291901628 18.5871696330829 18.7593123543613 18.9300912958289 19.0994404349028 19.2672938263576 19.433585644412 19.5982502250958 19.7612221088575 19.9224360833776 20.0818272265462 20.2393309495671 20.3948830401491 20.5484197057437 20.6998776167901 20.8491939499247 20.9963064311176 21.1411533786908 21.2836737461807 21.4238071650006 21.5614939868636 21.696675325923 21.8292931005894 21.9592900749836 22.086609899983 22.2111971538205 22.3329973821961 22.4519571378601 22.5680240196269 22.6811467107807 22.791275016834 22.8983599025982 23.0023535285306 23.1032092863179 23.2008818336607 23.2953271282215 23.386502460702 23.4743664870133 23.558879259507 23.640002257232 23.7176984151874 23.791932152538 23.8626693997637 23.9298776247146 23.9935258575411 24.0535847144755 24.1100264204373 24.1628248304388 24.2119554497683 24.2573954529271 24.2991237013028 24.3371207595573 24.3713689107128 24.401852169919 24.4285562968871 24.4514688069764 24.4705789809216 24.4858778731905 24.4973583189628 24.5050149397221 24.5088441474555 24.5088441474555 24.5050149397221 24.4973583189628 24.4858778731905 24.4705789809216 24.4514688069764 24.4285562968871 24.401852169919 24.3713689107128 24.3371207595573 24.2991237013028 24.2573954529271 24.2119554497683 24.1628248304388 24.1100264204373 24.0535847144755 23.9935258575411 23.9298776247146 23.8626693997637 23.791932152538 23.7176984151874 23.640002257232 23.558879259507 23.4743664870133 23.386502460702 23.2953271282215 23.2008818336607 23.1032092863179 23.0023535285306 22.8983599025982 22.791275016834 22.6811467107807 22.5680240196269 22.4519571378601 22.3329973821961 22.2111971538205 22.086609899983 21.9592900749836 21.8292931005894 21.696675325923 21.5614939868636 21.4238071650006 21.2836737461807 21.1411533786908 20.9963064311176 20.8491939499247 20.6998776167901 20.5484197057437 20.3948830401491 20.2393309495671 20.0818272265462 19.9224360833776 19.7612221088575 19.5982502250958 19.433585644412 19.2672938263576 19.0994404349028 18.9300912958289 18.7593123543613 18.5871696330829 18.4137291901628 18.2390570779386 18.0632193018852 17.8862817800073 17.708310302687 17.5293704930217 17.3495277676832 17.1688472983296 16.9873939736008 16.8052323617268 16.6224266737764 16.4390407275761 16.2551379123226 16.0707811539171 15.8860328810443 15.7009549920191 15.5156088224245 15.3300551135609 15.1443539817264 14.9585648883477 14.7727466109795 14.5869572151869 14.4012540273296 14.2156936082582 14.0303317279384 13.8452233410144 13.6604225633206 13.4759826493536 13.2919559707102 13.108393995501 12.925347268744 12.742865393743 12.5609970144562 12.3797897988556 12.1992904232797 12.01954455778
14.8932641165576 15.0782421581222 15.2631326221339 15.4478763067413 15.6324133580807 15.8166833000144 16.0006250647164 16.1841770240855 16.3672770219658 16.5498624071556 16.7318700671802 16.9132364628062 17.0938976632746 17.2737893822244 17.4528470142834 17.6310056722966 17.8082002251651 17.9843653362654 18.1594355024195 18.3333450933843 18.5060283918278 18.6774196337604 18.847453049386 19.0160629043397 19.1831835412761 19.3487494217729 19.512695168512 19.674955607702 19.8354658117042 19.9941611418224 20.1509772912191 20.3058503279182 20.4587167378542 20.6095134679277 20.7581779690272 20.9046482389763 21.0488628653651 21.1907610682247 21.3302827425042 21.4673685003079 21.6019597128519 21.7339985520988 21.8634280320295 21.9901920495099 22.1142354247139 22.2355039410586 22.3539443846151 22.4695045829523 22.5821334433748 22.691780990516 22.7983984032479 22.9019380508685 23.0023535285306 23.0995996918738 23.1936326908252 23.2844100025314 23.3718904633889 23.4560343001383 23.5368031599898 23.6141601397474 23.6880698139022 23.7584982616627 23.8254130928962 23.8887834729502 23.9485801463302 24.0047754592062 24.0573433807253 24.1062595231056 24.1515011604921 24.1930472465518 24.2308784307904 24.2649770735726 24.2953272598292 24.3219148114363 24.3447272982544 24.3637540478125 24.3789861536296 24.3904164821631 24.3980396783761 24.401852169919 24.401852169919 24.3980396783761 24.3904164821631 24.3789861536296 24.3637540478125 24.3447272982544 24.3219148114363 24.2953272598292 24.2649770735726 24.2308784307904 24.1930472465518 24.1515011604921 24.1062595231056 24.0573433807253 24.0047754592062 23.9485801463302 23.8887834729502 23.8254130928962 23.7584982616627 23.6880698139022 23.6141601397474 23.5368031599898 23.4560343001383 23.3718904633889 23.2844100025314 23.1936326908252 23.0995996918738 23.0023535285306 22.9019380508685 22.7983984032479 22.691780990516 22.5821334433748 22.4695045829523 22.3539443846151 22.2355039410586 22.1142354247139 21.9901920495099 21.8634280320295 21.7339985520988 21.6019597128519 21.4673685003079 21.3302827425042 21.1907610682247 21.0488628653651 20.9046482389763 20.7581779690272 20.6095134679277 20.4587167378542 20.3058503279182 20.1509772912191 19.9941611418224 19.8354658117042 19.674955607702 19.512695168512 19.3487494217729 19.1831835412761 19.0160629043397 18.847453049386 18.6774196337604 18.5060283918278 18.3333450933843 18.1594355024195 17.9843653362654 17.8082002251651 17.6310056722966 17.4528470142834 17.2737893822244 17.0938976632746 16.9132364628062 16.7318700671802 16.5498624071556 16.3672770219658 16.1841770240855 16.0006250647164 15.8166833000144 15.6324133580807 15.4478763067413 15.2631326221339 15.0782421581222 14.8932641165576 14.7082570184044 14.5232786757461 14.3383861646871 14.1536357991649 13.9690831056846 13.7847827989889 13.6007887586728 13.4171540067531 13.2339306862015 13.0511700404475 12.8689223938576 12.6872371331952 12.5061626900662 12.3257465243504 12.1460351086237 11.9670739135673
14.8259316787908 15.0100734347451 15.1941280090845 15.3780364676092 15.5617392270547 15.7451760846961 15.9282862487948 16.1110083698702 16.2932805727745 16.475040489552 16.6562252930592 16.836771731324 17.0166161626178 17.1956945912187 17.373942703835 17.5512959066667 17.7276893630723 17.9030580318154 18.0773367058577 18.2504600516704 18.4223626490295 18.5929790312644 18.7622437259241 18.9300912958289 19.0964563804702 19.2612737377247 19.4244782858451 19.586005145691 19.7457896831612 19.903767551791 20.0598747354742 20.2140475912712 20.3662228922634 20.5163378704144 20.6643302593973 20.8101383373475 20.9537009695004 21.0949576506736 21.2338485475509 21.3703145407292 21.5042972664853 21.6357391582225 21.7645834875552 21.8907744049919 22.014256980174 22.1349772416321 22.2528822160173 22.36791996677 22.4800396321848 22.5891914628339 22.6953268583095 22.7983984032479 22.8983599025982 22.9951664160977 23.0887742919196 23.1791411994563 23.2662261612048 23.3499895837209 23.4303932876074 23.5074005365079 23.580976065072 23.6510861058642 23.7176984151874 23.7807822977928 23.8403086304498 23.8962498843515 23.9485801463302 23.9972751388613 24.0423122388335 24.083670495064 24.1213306445424 24.1552751273819 24.1854881004653 24.2119554497683 24.2346648013477 24.2536055309829 24.2687687724591 24.2801474244844 24.2877361562322 24.2915314115032 24.2915314115032 24.2877361562322 24.2801474244844 24.2687687724591 24.2536055309829 24.2346648013477 24.2119554497683 24.1854881004653 24.1552751273819 24.1213306445424 24.083670495064 24.0423122388335 23.9972751388613 23.9485801463302 23.8962498843515 23.8403086304498 23.7807822977928 23.7176984151874 23.6510861058642 23.580976065072 23.5074005365079 23.4303932876074 23.3499895837209 23.2662261612048 23.1791411994563 23.0887742919196 22.9951664160977 22.8983599025982 22.7983984032479 22.6953268583095 22.5891914628339 22.4800396321848 22.36791996677 22.2528822160173 22.1349772416321 22.014256980174 21.8907744049919 21.7645834875552 21.6357391582225 21.5042972664853 21.3703145407292 21.2338485475509 21.0949576506736 20.9537009695004 20.8101383373475 20.6643302593973 20.5163378704144 20.3662228922634 20.2140475912712 20.0598747354742 19.903767551791 19.7457896831612 19.586005145691 19.4244782858451 19.2612737377247 19.0964563804702 18.9300912958289 18.7622437259241 18.5929790312644 18.4223626490295 18.2504600516704 18.0773367058577 17.9030580318154 17.7276893630723 17.5512959066667 17.373942703835 17.1956945912187 17.0166161626178 16.836771731324 16.6562252930592 16.475040489552 16.2932805727745 16.1110083698702 15.9282862487948 15.7451760846961 15.5617392270547 15.3780364676092 15.1941280090845 15.0100734347451 14.8259316787908 14.6417609976128 14.457618941926 14.2735623297941 14.0896472205589 13.9059288896906 13.7224618045664 13.5392996011915 13.3564950618705 13.1741000938367 12.992165708848 12.8107420037545 12.6298781420421 12.4496223363573 12.270021832014 12.0911228914855 11.9129707798802
14.7565977523906 14.9398783637483 15.1230722011986 15.3061206061494 15.488964273979 15.6715432835025 15.8537971272758 16.0356647427208 16.217084544051 16.3979944549762 16.5783319421661 16.7580340494482 16.9370374327167 17.1152783955274 17.2926929253518 17.4692167304648 17.6447852774355 17.8193338291947 17.9927974836469 18.1651112127976 18.3362099023625 18.5060283918279 18.6745015149266 18.841564140498 19.0071512136939 19.1711977974979 19.3336391145195 19.4944105890273 19.6534478891838 19.8106869694424 19.9660641130703 20.1195159747558 20.2709796232632 20.4203925840927 20.5676928821077 20.7128190840878 20.8557103411672 20.9963064311176 21.1345478004353 21.2703756061909 21.403731757601 21.5345589572807 21.6628007421366 21.7884015238589 21.9113066289727 22.0314623384077 22.1488159265466 22.2633156997127 22.374911034057 22.4835524128062 22.5891914628339 22.691780990516 22.791275016834 22.8876288116897 22.9807989273956 23.0707432313042 23.1574209375454 23.2407926378346 23.320820331322 23.3974674534499 23.4706989037871 23.540481072813 23.6067818676188 23.6695707365031 23.7288186924309 23.7844983353347 23.8365838732306 23.8850511421285 23.9298776247146 23.9710424677854 24.008526498414 24.0423122388335 24.0723839200172 24.0987274939455 24.1213306445424 24.1401827972717 24.1552751273819 24.1666005667903 24.1741538096002 24.1779313162429 24.1779313162429 24.1741538096002 24.1666005667903 24.1552751273819 24.1401827972717 24.1213306445424 24.0987274939455 24.0723839200172 24.0423122388335 24.008526498414 23.9710424677854 23.9298776247146 23.8850511421285 23.8365838732306 23.7844983353347 23.7288186924309 23.6695707365031 23.6067818676188 23.540481072813 23.4706989037871 23.3974674534499 23.320820331322 23.2407926378346 23.1574209375454 23.0707432313042 22.9807989273956 22.8876288116897 22.791275016834 22.691780990516 22.5891914628339 22.4835524128062 22.374911034057 22.2633156997127 22.1488159265466 22.0314623384077 21.9113066289727 21.7884015238589 21.6628007421366 21.5345589572807 21.403731757601 21.2703756061909 21.1345478004353 20.9963064311176 20.8557103411672 20.7128190840878 20.5676928821077 20.4203925840927 20.2709796232632 20.1195159747558 19.9660641130703 19.8106869694424 19.6534478891838 19.4944105890273 19.3336391145195 19.1711977974979 19.0071512136939 18.841564140498 18.6745015149266 18.5060283918279 18.3362099023625 18.1651112127976 17.9927974836469 17.8193338291947 17.6447852774355 17.4692167304648 17.2926929253518 17.1152783955274 16.9370374327167 16.7580340494482 16.5783319421661 16.3979944549762 16.217084544051 16.0356647427208 15.8537971272758 15.6715432835025 15.488964273979 15.3061206061494 15.1230722011986 14.9398783637483 14.7565977523906 14.5732883510789 14.3900074413905 14.2068115756773 14.0237565511184 13.8408973846862 13.6582882890397 13.4759826493536 13.2940330010944 13.1124910087496 12.9314074455191 12.7508321739736 12.5708141276843 12.3914012938299 12.2126406967801 12.0345783826602 11.8572594048951
14.6852933118808 14.867688304367 15.0499969422406 15.23216085035 15.4141210106358 15.5958177914544 15.7771909777361 15.9581798019595 16.1387229759228 16.318758723291 16.4982248128971 16.6770585927752 16.8551970249007 17.0325767206129 17.2091339766944 17.3848048120801 17.5595250051672 17.7332301316983 17.9058556031874 18.0773367058577 18.2476086400596 18.4166065601374 18.5842656147101 18.7505209873329 18.9153079375053 19.078561841989 19.2402182364004 19.4002128570404 19.5584816829253 19.7149609779793 19.8695873333509 20.0222977098157 20.1730294802238 20.3217204719547 20.4683090093381 20.6127339560012 20.7549347571021 20.8948514814087 21.0324248631822 21.1675963438243 21.3003081132485 21.430503150933 21.5581252666163 21.6831191405935 21.8054303635738 21.9250054760596 22.0417920072058 22.1557385131215 22.2667946145739 22.374911034057 22.4800396321848 22.5821334433748 22.6811467107807 22.7770349204421 22.869754834612 22.9592645242298 23.0455234005041 23.1284922455727 23.2081332422073 23.2844100025314 23.3572875957208 23.4267325746569 23.4927130015054 23.5551984721917 23.6141601397474 23.6695707365031 23.7214045951026 23.7696376683173 23.814247547638 23.8552134806244 23.8925163869941 23.9261388734333 23.956065247112 23.9822815278911 24.0047754592062 24.023536517618 24.0385559210161 24.0498266354714 24.0573433807253 24.0611026343126 24.0611026343126 24.0573433807253 24.0498266354714 24.0385559210161 24.023536517618 24.0047754592062 23.9822815278911 23.956065247112 23.9261388734333 23.8925163869941 23.8552134806244 23.814247547638 23.7696376683173 23.7214045951026 23.6695707365031 23.6141601397474 23.5551984721917 23.4927130015054 23.4267325746569 23.3572875957208 23.2844100025314 23.2081332422073 23.1284922455727 23.0455234005041 22.9592645242298 22.869754834612 22.7770349204421 22.6811467107807 22.5821334433748 22.4800396321848 22.374911034057 22.2667946145739 22.1557385131215 22.0417920072058 21.9250054760596 21.8054303635738 21.6831191405935 21.5581252666163 21.430503150933 21.3003081132485 21.1675963438243 21.0324248631822 20.8948514814087 20.7549347571021 20.6127339560012 20.4683090093381 20.3217204719547 20.1730294802238 20.0222977098157 19.8695873333509 19.7149609779793 19.5584816829253 19.4002128570404 19.2402182364004 19.078561841989 18.9153079375053 18.7505209873329 18.5842656147101 18.4166065601374 18.2476086400596 18.0773367058577 17.9058556031874 17.7332301316983 17.5595250051672 17.3848048120801 17.2091339766944 17.0325767206129 16.8551970249007 16.6770585927752 16.4982248128971 16.318758723291 16.1387229759228 15.9581798019595 15.7771909777361 15.5958177914544 15.4141210106358 15.23216085035 15.0499969422406 14.867688304367 14.6852933118808 14.5028696685548 14.3204743791794 14.1381637228437 13.9559932271123 13.7740176431138 13.5922909215493 13.4108661896347 13.2297957289828 13.0491309544365 12.8689223938576 12.6892196688789 12.5100714766229 12.3315255723923 12.1536287533333 11.9764268430747 11.7999646773413
14.6120501059263 14.7935353995923 14.9749347693411 15.1561901311685 15.3372427613687 15.5180333257124 15.6985019094536 15.8785880481503 16.0582307592769 16.237368574609 16.415939573359 16.5938814160389 16.7711313790276 16.9476263898166 17.1233030629098 17.2980977363487 17.4719465088373 17.6447852774355 17.8165497757937 17.9871756128964 18.1565983122835 18.3247533517186 18.491576203268 18.6570023737605 18.8209674455902 18.9834071178284 19.144257247609 19.3034538917495 19.4609333485722 19.6166321998861 19.770487353093 19.9224360833776 20.0724160759445 20.2203654682603 20.3662228922634 20.5099275164999 20.6514190881465 20.7906379748794 20.9275252065487 21.0620225166186 21.1940723833313 21.3236180705564 21.4506036682823 21.5749741327122 21.696675325923 21.8156540550472 21.9318581109393 22.0452363062858 22.1557385131215 22.2633156997127 22.36791996677 22.4695045829523 22.5680240196269 22.6634339848474 22.7556914565161 22.8447547146945 22.9305833730286 23.013138409256 23.0923821947628 23.1682785231577 23.2407926378346 23.3098912584933 23.37554260659 23.4377164296911 23.4963840247031 23.5515182599545 23.6030935961057 23.6510861058642 23.6954734924835 23.7362351070267 23.7733519643748 23.8068067579633 23.8365838732306 23.8626693997637 23.8850511421285 23.903718629371 23.9186631231822 23.9298776247146 23.9373568800451 23.9410973842769 23.9410973842769 23.9373568800451 23.9298776247146 23.9186631231822 23.903718629371 23.8850511421285 23.8626693997637 23.8365838732306 23.8068067579633 23.7733519643748 23.7362351070267 23.6954734924835 23.6510861058642 23.6030935961057 23.5515182599545 23.4963840247031 23.4377164296911 23.37554260659 23.3098912584933 23.2407926378346 23.1682785231577 23.0923821947628 23.013138409256 22.9305833730286 22.8447547146945 22.7556914565161 22.6634339848474 22.5680240196269 22.4695045829523 22.36791996677 22.2633156997127 22.1557385131215 22.0452363062858 21.9318581109393 21.8156540550472 21.696675325923 21.5749741327122 21.4506036682823 21.3236180705564 21.1940723833313 21.0620225166186 20.9275252065487 20.7906379748794 20.6514190881465 20.5099275164999 20.3662228922634 20.2203654682603 20.0724160759445 19.9224360833776 19.770487353093 19.6166321998861 19.4609333485722 19.3034538917495 19.144257247609 18.9834071178284 18.8209674455902 18.6570023737605 18.491576203268 18.3247533517186 18.1565983122835 17.9871756128964 17.8165497757937 17.6447852774355 17.4719465088373 17.2980977363487 17.1233030629098 16.9476263898166 16.7711313790276 16.5938814160389 16.415939573359 16.237368574609 16.0582307592769 15.8785880481503 15.6985019094536 15.5180333257124 15.3372427613687 15.1561901311685 14.9749347693411 14.7935353995923 14.6120501059263 14.4305363043171 14.2490507152426 14.0676493370987 13.8863874205053 13.7053194435184 13.524499087759 13.3439792154697 13.1638118475079 12.9840481422838 12.8047383756505 12.6259319217517 12.4476772348322 12.270021832014 12.0930122770417 11.9166941649975 11.7411121079874
14.5369006337997 14.7174525523459 14.8979189888799 15.0782421581222 15.258363638382 15.4382244005845 15.6177648381241 15.7969247975261 15.9756436098969 16.1538601231418 16.3315127349307 16.5085394263861 16.6848777964733 16.8604650970644 17.0352382686535 17.2091339766944 17.3820886485341 17.5540385109125 17.7249196280005 17.8946679399444 18.0632193018852 18.2305095234229 18.3964744084897 18.5610497956015 18.7241715984507 18.8857758468071 19.0457987276899 19.2041766267752 19.3608461700016 19.5157442653365 19.6688081446657 19.8199754057665 19.969184054327 20.1163725459715 20.2614798282532 20.4044453825731 20.5452092659869 20.6837121528585 20.8198953763205 20.9537009695004 21.085071706474 21.2139511429033 21.3402836563208 21.464014486019 21.5850897725048 21.7034565964806 21.8190630173116 21.9318581109393 22.0417920072058 22.1488159265466 22.2528822160173 22.3539443846151 22.4519571378601 22.5468764115986 22.6386594049946 22.7272646126743 22.8126518559899 22.8947823133698 22.9736185497232 23.0491245448675 23.1212657209492 23.190008968828 23.2553226733964 23.3171767378084 23.37554260659 23.4303932876074 23.4817033728692 23.5294490581405 23.5736081613465 23.6141601397474 23.6510861058642 23.6843688421397 23.7139928143177 23.7399441835263 23.7622108170519 23.7807822977928 23.7956499323808 23.8068067579633 23.814247547638 23.8179688145337 23.8179688145337 23.814247547638 23.8068067579633 23.7956499323808 23.7807822977928 23.7622108170519 23.7399441835263 23.7139928143177 23.6843688421397 23.6510861058642 23.6141601397474 23.5736081613465 23.5294490581405 23.4817033728692 23.4303932876074 23.37554260659 23.3171767378084 23.2553226733964 23.190008968828 23.1212657209492 23.0491245448675 22.9736185497232 22.8947823133698 22.8126518559899 22.7272646126743 22.6386594049946 22.5468764115986 22.4519571378601 22.3539443846151 22.2528822160173 22.1488159265466 22.0417920072058 21.9318581109393 21.8190630173116 21.7034565964806 21.5850897725048 21.464014486019 21.3402836563208 21.2139511429033 21.085071706474 20.9537009695004 20.8198953763205 20.6837121528585 20.5452092659869 20.4044453825731 20.2614798282532 20.1163725459715 19.969184054327 19.8199754057665 19.6688081446657 19.5157442653365 19.3608461700016 19.2041766267752 19.0457987276899 18.8857758468071 18.7241715984507 18.5610497956015 18.3964744084897 18.2305095234229 18.0632193018852 17.8946679399444 17.7249196280005 17.5540385109125 17.3820886485341 17.2091339766944 17.0352382686535 16.8604650970644 16.6848777964733 16.5085394263861 16.3315127349307 16.1538601231418 15.9756436098969 15.7969247975261 15.6177648381241 15.4382244005845 15.258363638382 15.0782421581222 14.8979189888799 14.7174525523459 14.5369006337997 14.356320353926 14.1757681414907 13.9952997068907 13.8149700165934 13.6348332684752 13.4549428680737 13.2753514057619 13.0961106348552 12.917271450657 12.7388838704529 12.5609970144562 12.3836590877127 12.2069173629646 12.0308181644803 11.8554068528475 11.6807278107329
14.4598781213795 14.63947340118 14.8189836518874 14.9983513943924 15.1775185165466 15.3564263020355 15.5350154600742 15.7132261559058 15.8909980420856 16.0682702905281 16.2449816252977 16.4210703561187 16.5964744125827 16.7711313790276 16.9449785300626 17.1179528667143 17.2899911531637 17.461029954048 17.6310056722966 17.7998545874712 17.967512894579 18.1339167433271 18.2990022777852 18.4627056764232 18.6249631924892 18.7857111946939 18.9448862081639 19.1024249556303 19.2582643988139 19.4123417799696 19.5645946635547 19.7149609779793 19.8633790574028 20.0097876835375 20.1541261274172 20.2963341910958 20.4363522492315 20.5741212905199 20.7095829589348 20.8426795947364 20.9733542752069 21.1015508550739 21.2272140065808 21.3502892591647 21.4707230387026 21.5884627062853 21.7034565964806 21.8156540550472 21.9250054760596 22.0314623384077 22.1349772416321 22.2355039410586 22.3329973821961 22.4274137343611 22.5187104234941 22.606846164134 22.691780990516 22.7734762867613 22.8518948161256 22.9270007492763 22.9987596915676 23.0671387092849 23.132106354831 23.1936326908252 23.2516893130923 23.3062493725139 23.3572875957208 23.4047803046025 23.4487054346144 23.4890425518603 23.5257728689349 23.558879259507 23.5883462716271 23.6141601397474 23.6363087954386 23.6547818767928 23.6695707365031 23.6806684486089 23.6880698139022 23.6917713639867 23.6917713639867 23.6880698139022 23.6806684486089 23.6695707365031 23.6547818767928 23.6363087954386 23.6141601397474 23.5883462716271 23.558879259507 23.5257728689349 23.4890425518603 23.4487054346144 23.4047803046025 23.3572875957208 23.3062493725139 23.2516893130923 23.1936326908252 23.132106354831 23.0671387092849 22.9987596915676 22.9270007492763 22.8518948161256 22.7734762867613 22.691780990516 22.606846164134 22.5187104234941 22.4274137343611 22.3329973821961 22.2355039410586 22.1349772416321 22.0314623384077 21.9250054760596 21.8156540550472 21.7034565964806 21.5884627062853 21.4707230387026 21.3502892591647 21.2272140065808 21.1015508550739 20.9733542752069 20.8426795947364 20.7095829589348 20.5741212905199 20.4363522492315 20.2963341910958 20.1541261274172 20.0097876835375 19.8633790574028 19.7149609779793 19.5645946635547 19.4123417799696 19.2582643988139 19.1024249556303 18.9448862081639 18.7857111946939 18.6249631924892 18.4627056764232 18.2990022777852 18.1339167433271 17.967512894579 17.7998545874712 17.6310056722966 17.461029954048 17.2899911531637 17.1179528667143 16.9449785300626 16.7711313790276 16.5964744125827 16.4210703561187 16.2449816252977 16.0682702905281 15.8909980420856 15.7132261559058 15.5350154600742 15.3564263020355 15.1775185165466 14.9983513943924 14.8189836518874 14.63947340118 14.4598781213795 14.2802546305216 14.1006590583891 13.9211468202024 13.7417725911936 13.5625902820764 13.3836530154238 13.2050131029634 13.0267220237998 12.8488304035723 12.6713879945541 12.4944436566994 12.3180453396436 12.1422400656586 11.9670739135673 11.7925920036184 11.618838483321
14.3810164967025 14.559632295526 14.7381635289901 14.9165530314664 15.0947430077398 15.2726750617245 15.4502902259968 15.6275289921282 15.8043313417982 15.980636778667 16.156384360987 16.3315127349307 16.5059601686105 16.6796645867683 16.8525636061067 17.0245945712375 17.1956945912187 17.3658005766527 17.5348492773163 17.702777320291 17.8695212485653 18.0350175600745 18.1992027471473 18.362013336325 18.5233859285192 18.6832572394744 18.841564140498 18.9982436994243 19.1532332217734 19.3064702920702 19.4578928152843 19.6074390583533 19.7550476917514 19.9006578310643 20.0442090785312 20.1856415645147 20.3248959888593 20.4619136620977 20.5966365464674 20.7290072966944 20.8589693005076 20.9864667188407 21.1114445256852 21.2338485475509 21.3536255024987 21.4707230387026 21.5850897725048 21.696675325923 21.8054303635738 21.9113066289727 22.014256980174 22.1142354247139 22.2111971538205 22.305098575855 22.3958973489494 22.4835524128062 22.5680240196269 22.6492737641368 22.7272646126743 22.8019609313136 22.8733285129913 22.9413346036075 23.0059479270745 23.0671387092849 23.1248787009748 23.1791411994563 23.2299010691964 23.2771347612213 23.320820331322 23.3609374570456 23.3974674534499 23.4303932876074 23.4596995918411 23.4853726756781 23.5074005365079 23.5257728689349 23.540481072813 23.5515182599545 23.558879259507 23.5625606219902 23.5625606219902 23.558879259507 23.5515182599545 23.540481072813 23.5257728689349 23.5074005365079 23.4853726756781 23.4596995918411 23.4303932876074 23.3974674534499 23.3609374570456 23.320820331322 23.2771347612213 23.2299010691964 23.1791411994563 23.1248787009748 23.0671387092849 23.0059479270745 22.9413346036075 22.8733285129913 22.8019609313136 22.7272646126743 22.6492737641368 22.5680240196269 22.4835524128062 22.3958973489494 22.305098575855 22.2111971538205 22.1142354247139 22.014256980174 21.9113066289727 21.8054303635738 21.696675325923 21.5850897725048 21.4707230387026 21.3536255024987 21.2338485475509 21.1114445256852 20.9864667188407 20.8589693005076 20.7290072966944 20.5966365464674 20.4619136620977 20.3248959888593 20.1856415645147 20.0442090785312 19.9006578310643 19.7550476917514 19.6074390583533 19.4578928152843 19.3064702920702 19.1532332217734 18.9982436994243 18.841564140498 18.6832572394744 18.5233859285192 18.362013336325 18.1992027471473 18.0350175600745 17.8695212485653 17.702777320291 17.5348492773163 17.3658005766527 17.1956945912187 17.0245945712375 16.8525636061067 16.6796645867683 16.5059601686105 16.3315127349307 16.156384360987 15.980636778667 15.8043313417982 15.6275289921282 15.4502902259968 15.2726750617245 15.0947430077398 14.9165530314664 14.7381635289901 14.559632295526 14.3810164967025 14.2023726406797 14.0237565511184 13.8452233410144 13.6668273874106 13.4886223070011 13.3106609326379 13.1329952907495 12.9556765796827 12.7787551489734 12.6022804795546 12.4263011649072 12.2508648931575 12.0760184301262 11.9018076033306 11.7282772869416 11.5554713876952
14.3003503650975 14.4779642705195 14.6554940849269 14.8328829633453 15.0100734347451 15.1870074305962 15.3636263142356 15.5398709110301 15.7156815393145 15.8909980420856 16.0657598194309 16.2399058616692 16.4133747831801 16.5861048568986 16.7580340494482 16.929100056888 17.0992403410443 17.2683921664013 17.4364926375194 17.6034787369523 17.7692873636319 17.93385537169 18.0971196096831 18.2590169601883 18.4194843797363 18.5784589390458 18.7358778635265 18.8916785740123 19.0457987276899 19.1981762591856 19.3487494217729 19.4974568286631 19.6442374943407 19.7890308759046 19.9317769143779 20.0724160759445 20.2108893930757 20.347138505506 20.4811057010185 20.6127339560012 20.7419669757327 20.8687492343601 20.9930260145269 21.1147434466138 21.2338485475509 21.3502892591647 21.464014486019 21.5749741327122 21.6831191405935 21.7884015238589 21.8907744049919 21.9901920495099 22.086609899983 22.1799846092869 22.2702740730581 22.3574374613147 22.4414352492121 22.5222292468987 22.5997826284426 22.6740599597961 22.7450272257702 22.8126518559899 22.8769027498014 22.9377503001067 22.9951664160977 23.0491245448675 23.0995996918738 23.1465684402337 23.190008968828 23.2299010691964 23.2662261612048 23.2989673074669 23.3281092265061 23.3536383046422 23.37554260659 23.393811884759 23.4084375872429 23.4194128644916 23.4267325746569 23.4303932876074 23.4303932876074 23.4267325746569 23.4194128644916 23.4084375872429 23.393811884759 23.37554260659 23.3536383046422 23.3281092265061 23.2989673074669 23.2662261612048 23.2299010691964 23.190008968828 23.1465684402337 23.0995996918738 23.0491245448675 22.9951664160977 22.9377503001067 22.8769027498014 22.8126518559899 22.7450272257702 22.6740599597961 22.5997826284426 22.5222292468987 22.4414352492121 22.3574374613147 22.2702740730581 22.1799846092869 22.086609899983 21.9901920495099 21.8907744049919 21.7884015238589 21.6831191405935 21.5749741327122 21.464014486019 21.3502892591647 21.2338485475509 21.1147434466138 20.9930260145269 20.8687492343601 20.7419669757327 20.6127339560012 20.4811057010185 20.347138505506 20.2108893930757 20.0724160759445 19.9317769143779 19.7890308759046 19.6442374943407 19.4974568286631 19.3487494217729 19.1981762591856 19.0457987276899 18.8916785740123 18.7358778635265 18.5784589390458 18.4194843797363 18.2590169601883 18.0971196096831 17.93385537169 17.7692873636319 17.6034787369523 17.4364926375194 17.2683921664013 17.0992403410443 16.929100056888 16.7580340494482 16.5861048568986 16.4133747831801 16.2399058616692 16.0657598194309 15.8909980420856 15.7156815393145 15.5398709110301 15.3636263142356 15.1870074305962 15.0100734347451 14.8328829633453 14.6554940849269 14.4779642705195 14.3003503650975 14.1227085598548 13.9450943653259 13.7675625853659 13.5901672920057 13.4129618011922 13.2359986494266 13.0593295713106 12.8830054780086 12.7070764366354 12.5315916505751 12.3565994407376 12.1821472277564 12.0082815151332 11.8350478733291 11.6624909248061 11.4906543300184
14.2179149839249 14.3945050214262 14.5710114526614 14.747377760343 14.9235468047374 15.0994608520545 15.2750616036466 15.4502902259968 15.625087381479 15.7993932598694 15.9731476105879 16.1462897756479 16.318758723291 16.490493082282 16.6614311768403 16.8315110621803 17.0006705606342 17.1688472983296 17.3359787423918 17.5020022386432 17.6668550497663 17.8304743939018 17.9927974836469 18.1537615654239 18.3133039591816 18.4713620983994 18.6278735703554 18.7827761566255 18.936007873776 19.0875070142134 19.2372121871546 19.3850623596795 19.5309968978276 19.674955607702 19.8168787765398 19.9567072137119 20.094382291612 20.2298459863964 20.3630409185347 20.4939103931311 20.6223984399795 20.7484498533095 20.8720102311867 20.9930260145269 21.1114445256852 21.2272140065808 21.3402836563208 21.4506036682823 21.5581252666163 21.6628007421366 21.7645834875552 21.8634280320295 21.9592900749836 22.0521265191712 22.1418955029421 22.2285564316819 22.3120700083895 22.3923982633618 22.4695045829523 22.5433537373754 22.6139119075252 22.6811467107807 22.7450272257702 22.8055240160679 22.8626091527971 22.9162562361171 22.9664404155683 23.013138409256 23.0563285218506 23.0959906613848 23.132106354831 23.1646587624396 23.1936326908252 23.2190146047847 23.2407926378346 23.2589566014573 23.2734979930448 23.2844100025314 23.2916875177097 23.2953271282215 23.2953271282215 23.2916875177097 23.2844100025314 23.2734979930448 23.2589566014573 23.2407926378346 23.2190146047847 23.1936326908252 23.1646587624396 23.132106354831 23.0959906613848 23.0563285218506 23.013138409256 22.9664404155683 22.9162562361171 22.8626091527971 22.8055240160679 22.7450272257702 22.6811467107807 22.6139119075252 22.5433537373754 22.4695045829523 22.3923982633618 22.3120700083895 22.2285564316819 22.1418955029421 22.0521265191712 21.9592900749836 21.8634280320295 21.7645834875552 21.6628007421366 21.5581252666163 21.4506036682823 21.3402836563208 21.2272140065808 21.1114445256852 20.9930260145269 20.8720102311867 20.7484498533095 20.6223984399795 20.4939103931311 20.3630409185347 20.2298459863964 20.094382291612 19.9567072137119 19.8168787765398 19.674955607702 19.5309968978276 19.3850623596795 19.2372121871546 19.0875070142134 18.936007873776 18.7827761566255 18.6278735703554 18.4713620983994 18.3133039591816 18.1537615654239 17.9927974836469 17.8304743939018 17.6668550497663 17.5020022386432 17.3359787423918 17.1688472983296 17.0006705606342 16.8315110621803 16.6614311768403 16.490493082282 16.318758723291 16.1462897756479 15.9731476105879 15.7993932598694 15.625087381479 15.4502902259968 15.2750616036466 15.0994608520545 14.9235468047374 14.747377760343 14.5710114526614 14.3945050214262 14.2179149839249 14.0412972074336 13.864706882492 13.6881984970348 13.5118258113907 13.3356418341631 13.1596987990029 12.9840481422838 12.8087404816894 12.633825595719 12.4593524041204 12.285368949254 12.1119223783939 11.939058926969 11.7668239027462 11.5952616709583 11.4244156403756
14.1337462369484 14.3092908776948 14.4847524071165 14.6600746425033 14.8352007823832 15.0100734347451 15.1846346460638 15.3588259311113 15.5325883035351 15.7058623071821 15.8785880481503 16.0507052275428 16.2221531749033 16.3928708823089 16.5627970390939 16.7318700671802 16.9000281569859 17.0672093038862 17.2333513451955 17.3983919976429 17.5622688953101 17.7249196280005 17.8862817800073 18.0462929692479 18.2048908867313 18.362013336325 18.5175982747845 18.6715838520133 18.8239084515136 18.9745107309955 19.1233296631035 19.2703045762266 19.4153751953522 19.5584816829253 19.6995646796773 19.8385653453821 19.9754253995034 20.1100871616934 20.242493592103 20.3725883314653 20.5003157409124 20.6256209414871 20.7484498533095 20.8687492343601 20.9864667188407 21.1015508550739 21.2139511429033 21.3236180705564 21.430503150933 21.5345589572807 21.6357391582225 21.7339985520988 21.8292931005894 21.9215799615793 22.0108175212356 22.0969654252603 22.1799846092869 22.2598373283895 22.3364871856709 22.4098991599026 22.4800396321848 22.5468764115986 22.610378759824 22.6705174146959 22.7272646126743 22.7805941102029 22.8304812039346 22.8769027498014 22.919837180908 22.9592645242298 22.9951664160977 23.0275261164519 23.0563285218506 23.0815601772175 23.1032092863179 23.1212657209492 23.135721028838 23.1465684402337 23.1538028731925 23.1574209375454 23.1574209375454 23.1538028731925 23.1465684402337 23.135721028838 23.1212657209492 23.1032092863179 23.0815601772175 23.0563285218506 23.0275261164519 22.9951664160977 22.9592645242298 22.919837180908 22.8769027498014 22.8304812039346 22.7805941102029 22.7272646126743 22.6705174146959 22.610378759824 22.5468764115986 22.4800396321848 22.4098991599026 22.3364871856709 22.2598373283895 22.1799846092869 22.0969654252603 22.0108175212356 21.9215799615793 21.8292931005894 21.7339985520988 21.6357391582225 21.5345589572807 21.430503150933 21.3236180705564 21.2139511429033 21.1015508550739 20.9864667188407 20.8687492343601 20.7484498533095 20.6256209414871 20.5003157409124 20.3725883314653 20.242493592103 20.1100871616934 19.9754253995034 19.8385653453821 19.6995646796773 19.5584816829253 19.4153751953522 19.2703045762266 19.1233296631035 18.9745107309955 18.8239084515136 18.6715838520133 18.5175982747845 18.362013336325 18.2048908867313 18.0462929692479 17.8862817800073 17.7249196280005 17.5622688953101 17.3983919976429 17.2333513451955 17.0672093038862 16.9000281569859 16.7318700671802 16.5627970390939 16.3928708823089 16.2221531749033 16.0507052275428 15.8785880481503 15.7058623071821 15.5325883035351 15.3588259311113 15.1846346460638 15.0100734347451 14.8352007823832 14.6600746425033 14.4847524071165 14.3092908776948 14.1337462369484 13.9581740214242 13.7826290949391 13.6071656228642 13.431837047272 13.2566960629598 13.0817945943601 12.9071837733482 12.7329139179555 12.5590345119972 12.3855941856207 12.2126406967801 12.040220913642 11.8683807979256 11.6971653891803 11.5266187900005 11.3567841521809
14.0478806083636 14.2223587766639 14.3967543385591 14.5710114526614 14.7450736625803 14.9188839249738 15.0923846383973 15.2655176729334 15.4382244005845 15.610445726407 15.7821221203676 15.9531936498982 16.1236000131294 16.2932805727745 16.4621743906438 16.6302202627595 16.7973567550467 16.9635222395724 17.1286549313028 17.2926929253518 17.4555742346879 17.6172368282702 17.7776186695809 17.9366577555224 18.0942921556447 18.2504600516704 18.4050997772816 18.5581498581344 18.7095490520654 18.8592363894521 19.0071512136939 19.1532332217734 19.2974225048616 19.4396595889303 19.5798854753313 19.7180416813057 19.8540702803847 19.9879139426412 20.1195159747558 20.2488203598565 20.3757717970939 20.5003157409124 20.6223984399795 20.7419669757327 20.8589693005076 20.9733542752069 21.085071706474 21.1940723833313 21.3003081132485 21.403731757601 21.5042972664853 21.6019597128519 21.696675325923 21.7884015238589 21.87709694564 21.9627214821296 22.0452363062858 22.1246039024913 22.2007880949684 22.2737540752501 22.3434684286788 22.4098991599026 22.4730157173436 22.5327890166109 22.5891914628339 22.6421969718919 22.691780990516 22.7379205152436 22.7805941102029 22.81978192371 22.855465703659 22.8876288116897 22.9162562361171 22.9413346036075 22.9628521895908 22.9807989273956 22.9951664160977 23.0059479270745 23.013138409256 23.0167344930692 23.0167344930692 23.013138409256 23.0059479270745 22.9951664160977 22.9807989273956 22.9628521895908 22.9413346036075 22.9162562361171 22.8876288116897 22.855465703659 22.81978192371 22.7805941102029 22.7379205152436 22.691780990516 22.6421969718919 22.5891914628339 22.5327890166109 22.4730157173436 22.4098991599026 22.3434684286788 22.2737540752501 22.2007880949684 22.1246039024913 22.0452363062858 21.9627214821296 21.87709694564 21.7884015238589 21.696675325923 21.6019597128519 21.5042972664853 21.403731757601 21.3003081132485 21.1940723833313 21.085071706474 20.9733542752069 20.8589693005076 20.7419669757327 20.6223984399795 20.5003157409124 20.3757717970939 20.2488203598565 20.1195159747558 19.9879139426412 19.8540702803847 19.7180416813057 19.5798854753313 19.4396595889303 19.2974225048616 19.1532332217734 19.0071512136939 18.8592363894521 18.7095490520654 18.5581498581344 18.4050997772816 18.2504600516704 18.0942921556447 17.9366577555224 17.7776186695809 17.6172368282702 17.4555742346879 17.2926929253518 17.1286549313028 16.9635222395724 16.7973567550467 16.6302202627595 16.4621743906438 16.2932805727745 16.1236000131294 15.9531936498982 15.7821221203676 15.610445726407 15.4382244005845 15.2655176729334 15.0923846383973 14.9188839249738 14.7450736625803 14.5710114526614 14.3967543385591 14.2223587766639 14.0478806083636 13.8733750328084 13.6988965805054 13.524499087759 13.3502356719694 13.1761587078014 13.0023198042351 12.8287697825083 12.6555586549593 12.4827356047781 12.3103489666734 12.1384462084591 11.9670739135673 11.7962777644897 11.6261025271503 11.4565920362108 11.287789181309
13.9603551565118 14.1337462369484 14.30705522566 14.4802266291789 14.6532043428669 14.8259316787908 14.9983513943924 15.1704057219334 15.3420363986985 15.5131846979357 15.6837914605139 15.8537971272758 16.0231417720629 16.1917651353902 16.3596066587436 16.5266055194774 16.6927006662822 16.8578308551985 17.0219346861447 17.1849506399337 17.3468171157447 17.5074724690218 17.6668550497663 17.8249032411916 17.9815554987059 18.1367503891911 18.2904266305419 18.4425231314309 18.5929790312644 18.741733740292 18.8887269798344 19.0338988225928 19.1771897330008 19.3185406075835 19.4578928152843 19.5951882377221 19.730369309339 19.8633790574028 19.9941611418224 20.1226598947392 20.2488203598565 20.3725883314653 20.4939103931311 20.6127339560012 20.7290072966944 20.8426795947364 20.9537009695004 21.0620225166186 21.1675963438243 21.2703756061909 21.3703145407292 21.4673685003079 21.5614939868636 21.6526486838633 21.7407914879873 21.8258825399994 21.90788325477 21.9867563504232 22.0624658765746 22.1349772416321 22.204257239128 22.2702740730581 22.3329973821961 22.3923982633618 22.4484492936148 22.5011245513516 22.5503996362827 22.5962516882688 22.6386594049946 22.6776030584622 22.7130645102856 22.7450272257703 22.7734762867613 22.7983984032479 22.81978192371 22.8376168441965 22.8518948161256 22.8626091527971 22.869754834612 22.8733285129913 22.8733285129913 22.869754834612 22.8626091527971 22.8518948161256 22.8376168441965 22.81978192371 22.7983984032479 22.7734762867613 22.7450272257703 22.7130645102856 22.6776030584622 22.6386594049946 22.5962516882688 22.5503996362827 22.5011245513516 22.4484492936148 22.3923982633618 22.3329973821961 22.2702740730581 22.204257239128 22.1349772416321 22.0624658765746 21.9867563504232 21.90788325477 21.8258825399994 21.7407914879873 21.6526486838633 21.5614939868636 21.4673685003079 21.3703145407292 21.2703756061909 21.1675963438243 21.0620225166186 20.9537009695004 20.8426795947364 20.7290072966944 20.6127339560012 20.4939103931311 20.3725883314653 20.2488203598565 20.1226598947392 19.9941611418224 19.8633790574028 19.730369309339 19.5951882377221 19.4578928152843 19.3185406075835 19.1771897330008 19.0338988225928 18.8887269798344 18.741733740292 18.5929790312644 18.4425231314309 18.2904266305419 18.1367503891911 17.9815554987059 17.8249032411916 17.6668550497663 17.5074724690218 17.3468171157447 17.1849506399337 17.0219346861447 16.8578308551985 16.6927006662822 16.5266055194774 16.3596066587436 16.1917651353902 16.0231417720629 15.8537971272758 15.6837914605139 15.5131846979357 15.3420363986985 15.1704057219334 14.9983513943924 14.8259316787908 14.6532043428669 14.4802266291789 14.30705522566 14.1337462369484 13.9603551565118 13.7869368395813 13.6135454769114 13.4402345693788 13.2670569034353 13.0940645274248 12.9213087287772 12.7488400120881 12.5767080780934 12.4049618035469 12.2336492220073 12.0628175055399 11.8925129473383 11.722780945269 11.5536659863415 11.3852116321053 11.2174605049737
13.8712074873034 14.0434913315337 14.2156936082582 14.3877591783779 14.559632295526 14.7312566337659 14.9025753160772 15.0735309436134 15.2440656257117 15.4141210106358 15.5836383170315 15.7525583660728 15.9208216142761 16.0883681869597 16.2551379123226 16.4210703561187 16.5861048568986 16.7501805617925 16.9132364628062 17.0752114336001 17.2360442667222 17.3956737112649 17.5540385109125 17.711077442349 17.8667293539926 18.0209332050232 18.1736281046692 18.3247533517186 18.4742484742195 18.6220532693341 18.7681078433091 18.9123526515278 19.0547285386044 19.1951767784856 19.3336391145195 19.4700577994555 19.6043756353366 19.7365360132455 19.8664829528661 19.9941611418224 20.1195159747558 20.242493592103 20.3630409185347 20.4811057010185 20.5966365464674 20.7095829589348 20.8198953763205 20.9275252065487 21.0324248631822 21.1345478004353 21.2338485475509 21.3302827425042 21.4238071650006 21.5143797687309 21.6019597128519 21.6865073926595 21.7679844694199 21.846353899331 21.9215799615793 21.9936282854666 22.0624658765746 22.1280611419409 22.1903839142192 22.2494054747985 22.305098575855 22.3574374613147 22.406397886703 22.4519571378601 22.4940940485025 22.5327890166109 22.5680240196269 22.5997826284426 22.6280500201674 22.6528129896572 22.6740599597961 22.691780990516 22.705967786547 22.7166137038889 22.7237137549966 22.7272646126743 22.7272646126743 22.7237137549966 22.7166137038889 22.705967786547 22.691780990516 22.6740599597961 22.6528129896572 22.6280500201674 22.5997826284426 22.5680240196269 22.5327890166109 22.4940940485025 22.4519571378601 22.406397886703 22.3574374613147 22.305098575855 22.2494054747985 22.1903839142192 22.1280611419409 22.0624658765746 21.9936282854666 21.9215799615793 21.846353899331 21.7679844694199 21.6865073926595 21.6019597128519 21.5143797687309 21.4238071650006 21.3302827425042 21.2338485475509 21.1345478004353 21.0324248631822 20.9275252065487 20.8198953763205 20.7095829589348 20.5966365464674 20.4811057010185 20.3630409185347 20.242493592103 20.1195159747558 19.9941611418224 19.8664829528661 19.7365360132455 19.6043756353366 19.4700577994555 19.3336391145195 19.1951767784856 19.0547285386044 18.9123526515278 18.7681078433091 18.6220532693341 18.4742484742195 18.3247533517186 18.1736281046692 18.0209332050232 17.8667293539926 17.711077442349 17.5540385109125 17.3956737112649 17.2360442667222 17.0752114336001 16.9132364628062 16.7501805617925 16.5861048568986 16.4210703561187 16.2551379123226 16.0883681869597 15.9208216142761 15.7525583660728 15.5836383170315 15.4141210106358 15.2440656257117 15.0735309436134 14.9025753160772 14.7312566337659 14.559632295526 14.3877591783779 14.2156936082582 14.0434913315337 13.8712074873034 13.6988965805054 13.526612455844 13.3544082725518 13.1823364799979 13.0104487941575 12.8387961749505 12.6674288044615 12.4963960660488 12.3257465243504 12.1555279061935 11.9857870824132 11.8165700505853 11.6479219186759 11.4798868896103 11.3125082467639 11.145828340373
13.7804757273792 13.9516326606029 14.1227085598548 14.2936486467018 14.4643975394147 14.6348992804857 14.8050973649278 14.9749347693411 15.1443539817264 15.3132970320269 15.4817055233782 15.6495206640436 15.8166833000144 15.9831339482499 16.1488128305339 16.3136599079214 16.4776149157503 16.6406173991904 16.8026067493016 16.9635222395724 17.1233030629098 17.281888369049 17.439217302353 17.5952290399681 17.749862830306 17.9030580318154 18.054754152012 18.2048908867313 18.3534081595694 18.5002461614759 18.6453453904636 18.7886466913978 18.9300912958289 19.0696208618315 19.2071775138113 19.3427038822433 19.4761431433032 19.6074390583533 19.7365360132455 19.8633790574028 19.9879139426412 20.1100871616934 20.2298459863964 20.347138505506 20.4619136620977 20.5741212905199 20.6837121528585 20.7906379748794 20.8948514814087 20.9963064311176 21.0949576506736 21.1907610682247 21.2836737461807 21.3736539132579 21.4606609957538 21.5446556480189 21.625599782094 21.7034565964806 21.7781906040159 21.8497676588207 21.9181549822937 21.9833211881225 22.0452363062858 22.1038718060214 22.159200617734 22.2111971538205 22.2598373283895 22.305098575855 22.3469598683824 22.3854017321695 22.4204062625436 22.4519571378601 22.4800396321848 22.5046406267489 22.5257486201624 22.5433537373754 22.5574477373775 22.5680240196269 22.5750776292021 22.5786052606707 22.5786052606707 22.5750776292021 22.5680240196269 22.5574477373775 22.5433537373754 22.5257486201624 22.5046406267489 22.4800396321848 22.4519571378601 22.4204062625436 22.3854017321695 22.3469598683824 22.305098575855 22.2598373283895 22.2111971538205 22.159200617734 22.1038718060214 22.0452363062858 21.9833211881225 21.9181549822937 21.8497676588207 21.7781906040159 21.7034565964806 21.625599782094 21.5446556480189 21.4606609957538 21.3736539132579 21.2836737461807 21.1907610682247 21.0949576506736 20.9963064311176 20.8948514814087 20.7906379748794 20.6837121528585 20.5741212905199 20.4619136620977 20.347138505506 20.2298459863964 20.1100871616934 19.9879139426412 19.8633790574028 19.7365360132455 19.6074390583533 19.4761431433032 19.3427038822433 19.2071775138113 19.0696208618315 18.9300912958289 18.7886466913978 18.6453453904636 18.5002461614759 18.3534081595694 18.2048908867313 18.054754152012 17.9030580318154 17.749862830306 17.5952290399681 17.439217302353 17.281888369049 17.1233030629098 16.9635222395724 16.8026067493016 16.6406173991904 16.4776149157503 16.3136599079214 16.1488128305339 15.9831339482499 15.8166833000144 15.6495206640436 15.4817055233782 15.3132970320269 15.1443539817264 14.9749347693411 14.8050973649278 14.6348992804857 14.4643975394147 14.2936486467018 14.1227085598548 13.9516326606029 13.7804757273792 13.6092919086045 13.4381346967842 13.2670569034353 13.0961106348552 12.925347268744 12.754817431692 12.5845709775423 12.4146569666359 12.2451236459487 12.0760184301262 11.9073878834207 11.7392777025372 11.5717327003899 11.4047967907723 11.2385129739425 11.0729233231234
13.6881984970348 13.8582093241251 14.0281396598657 14.1979350926324 14.367540611545 14.5369006337997 14.7059590327801 14.8746591669279 15.0429439093576 15.2107556781933 15.3780364676092 15.5447278795516 15.7107711561208 15.8761072125881 16.0406766710259 16.2044198945238 16.3672770219658 16.5291880033411 16.6900926355608 16.8499305987523 17.0086414930008 17.1661648755089 17.3224402981427 17.4774073453326 17.6310056722966 17.7831750435533 17.93385537169 18.0829867563527 18.2305095234229 18.3763642643453 18.5204918755716 18.6628335980836 18.8033310569588 18.9419263009426 19.078561841989 19.2131806947325 19.3457264158542 19.4761431433032 19.6043756353366 19.730369309339 19.8540702803847 19.9754253995034 20.094382291612 20.2108893930757 20.3248959888593 20.4363522492315 20.5452092659869 20.6514190881465 20.7549347571021 20.8557103411672 20.9537009695004 21.0488628653651 21.1411533786908 21.2305310179041 21.3169554809932 21.4003876857763 21.4807897993397 21.5581252666163 21.6323588380734 21.7034565964806 21.7713859827296 21.8361158206778 21.8976163409903 21.9558592039532 22.0108175212356 22.0624658765746 22.1107803453639 22.1557385131215 22.1973194928201 22.2355039410586 22.2702740730581 22.3016136764674 22.3295081239605 22.3539443846151 22.374911034057 22.3923982633618 22.406397886703 22.4169033477375 22.423909724723 22.4274137343611 22.4274137343611 22.423909724723 22.4169033477375 22.406397886703 22.3923982633618 22.374911034057 22.3539443846151 22.3295081239605 22.3016136764674 22.2702740730581 22.2355039410586 22.1973194928201 22.1557385131215 22.1107803453639 22.0624658765746 22.0108175212356 21.9558592039532 21.8976163409903 21.8361158206778 21.7713859827296 21.7034565964806 21.6323588380734 21.5581252666163 21.4807897993397 21.4003876857763 21.3169554809932 21.2305310179041 21.1411533786908 21.0488628653651 20.9537009695004 20.8557103411672 20.7549347571021 20.6514190881465 20.5452092659869 20.4363522492315 20.3248959888593 20.2108893930757 20.094382291612 19.9754253995034 19.8540702803847 19.730369309339 19.6043756353366 19.4761431433032 19.3457264158542 19.2131806947325 19.078561841989 18.9419263009426 18.8033310569588 18.6628335980836 18.5204918755716 18.3763642643453 18.2305095234229 18.0829867563527 17.93385537169 17.7831750435533 17.6310056722966 17.4774073453326 17.3224402981427 17.1661648755089 17.0086414930008 16.8499305987523 16.6900926355608 16.5291880033411 16.3672770219658 16.2044198945238 16.0406766710259 15.8761072125881 15.7107711561208 15.5447278795516 15.3780364676092 15.2107556781933 15.0429439093576 14.8746591669279 14.7059590327801 14.5369006337997 14.367540611545 14.1979350926324 14.0281396598657 13.8582093241251 13.6881984970348 13.5181609644253 13.3481498606039 13.1782176434497 13.0084160703441 12.8387961749505 12.6694082448519 12.5003018000586 12.3315255723923 12.1631274857561 11.995154637296 11.8276532794595 11.660668802956 11.4942457206221 11.3284276521944 11.1632573099914 10.9987764855042
13.594414882936 13.7632608942323 13.9320269656591 14.1006590583891 14.2691025384447 14.4373022038435 14.6052023125161 14.7727466109795 14.9398783637483 15.1065403834645 15.2726750617245 15.4382244005845 15.6031300447196 15.7673333142158 15.9307752379684 16.0933965876648 16.2551379123226 16.415939573359 16.5757417801618 16.7344846261353 16.8921081251898 17.0485522486471 17.2037569625289 17.3576622651982 17.5102082253204 17.6613350201128 17.8109829738469 17.9590925965712 18.1056046230198 18.2504600516704 18.393600183918 18.5349666633272 18.6745015149266 18.8121471845102 18.9478465779068 19.0815431001816 19.2131806947325 19.3427038822433 19.4700577994555 19.5951882377221 19.7180416813057 19.8385653453821 19.9567072137119 20.0724160759445 20.1856415645147 20.2963341910958 20.4044453825731 20.5099275164999 20.6127339560012 20.7128190840878 20.8101383373475 20.9046482389763 20.9963064311176 21.085071706474 21.17090403916 21.253764614762 21.3336158595757 21.4104214689882 21.4841464349762 21.5547570726904 21.6222210460987 21.6865073926595 21.747586547 21.8054303635738 21.8600121382731 21.9113066289727 21.9592900749836 22.0039402153952 22.0452363062858 22.083159136784 22.1176910439622 22.1488159265466 22.1765192574294 22.2007880949684 22.2216110930626 22.238978509993 22.2528822160173 22.2633156997127 22.2702740730581 22.2737540752501 22.2737540752501 22.2702740730581 22.2633156997127 22.2528822160173 22.238978509993 22.2216110930626 22.2007880949684 22.1765192574294 22.1488159265466 22.1176910439622 22.083159136784 22.0452363062858 22.0039402153952 21.9592900749836 21.9113066289727 21.8600121382731 21.8054303635738 21.747586547 21.6865073926595 21.6222210460987 21.5547570726904 21.4841464349762 21.4104214689882 21.3336158595757 21.253764614762 21.17090403916 21.085071706474 20.9963064311176 20.9046482389763 20.8101383373475 20.7128190840878 20.6127339560012 20.5099275164999 20.4044453825731 20.2963341910958 20.1856415645147 20.0724160759445 19.9567072137119 19.8385653453821 19.7180416813057 19.5951882377221 19.4700577994555 19.3427038822433 19.2131806947325 19.0815431001816 18.9478465779068 18.8121471845102 18.6745015149266 18.5349666633272 18.393600183918 18.2504600516704 18.1056046230198 17.9590925965712 17.8109829738469 17.6613350201128 17.5102082253204 17.3576622651982 17.2037569625289 17.0485522486471 16.8921081251898 16.7344846261353 16.5757417801618 16.415939573359 16.2551379123226 16.0933965876648 15.9307752379684 15.7673333142158 15.6031300447196 15.4382244005845 15.2726750617245 15.1065403834645 14.9398783637483 14.7727466109795 14.6052023125161 14.4373022038435 14.2691025384447 14.1006590583891 13.9320269656591 13.7632608942323 13.594414882936 13.4255423490912 13.2566960629598 13.0879281230097 12.9192899320109 12.7508321739736 12.5826047919393 12.4146569666359 12.2470370960028 12.0797927755964 11.9129707798802 11.7466170444067 11.5807766488944 11.4154938012038 11.2508118222143 11.0867731316042 10.9234192345336
13.4991644106515 13.6668273874106 13.834410984406 14.0018615414382 14.1691248073274 14.3361459668689 14.5028696685548 14.6692400530473 14.8352007823832 15.0006950698927 15.1656657108106 15.3300551135609 15.4938053316905 15.6568580964312 15.8191548498648 15.980636778667 16.141244848404 16.300919838356 16.4596023768391 16.6172329769983 16.7737520730419 16.929100056888 17.0832173151915 17.2360442667222 17.3875214000599 17.5375893115754 17.6861887436635 17.8332606231943 17.9787461001492 18.1225865864054 18.2647237946348 18.4050997772816 18.5436569655811 18.6803382085859 18.8150868121602 18.9478465779068 19.078561841989 19.2071775138113 19.3336391145195 19.4578928152843 19.5798854753313 19.6995646796773 19.8168787765398 19.9317769143779 20.0442090785312 20.1541261274172 20.2614798282532 20.3662228922634 20.4683090093381 20.5676928821077 20.6643302593973 20.7581779690272 20.8491939499247 20.9373372835152 21.0225682243578 21.1048482299958 21.1841399899882 21.2604074540937 21.3336158595757 21.403731757601 21.4707230387026 21.5345589572807 21.595210155115 21.6526486838633 21.7068480265224 21.7577831178285 21.8054303635738 21.8497676588207 21.8907744049919 21.9284315258184 21.9627214821296 21.9936282854666 22.0211375105072 22.0452363062858 22.0659134061991 22.083159136784 22.0969654252603 22.1073258058278 22.1142354247139 22.1176910439622 22.1176910439622 22.1142354247139 22.1073258058278 22.0969654252603 22.083159136784 22.0659134061991 22.0452363062858 22.0211375105072 21.9936282854666 21.9627214821296 21.9284315258184 21.8907744049919 21.8497676588207 21.8054303635738 21.7577831178285 21.7068480265224 21.6526486838633 21.595210155115 21.5345589572807 21.4707230387026 21.403731757601 21.3336158595757 21.2604074540937 21.1841399899882 21.1048482299958 21.0225682243578 20.9373372835152 20.8491939499247 20.7581779690272 20.6643302593973 20.5676928821077 20.4683090093381 20.3662228922634 20.2614798282532 20.1541261274172 20.0442090785312 19.9317769143779 19.8168787765398 19.6995646796773 19.5798854753313 19.4578928152843 19.3336391145195 19.2071775138113 19.078561841989 18.9478465779068 18.8150868121602 18.6803382085859 18.5436569655811 18.4050997772816 18.2647237946348 18.1225865864054 17.9787461001492 17.8332606231943 17.6861887436635 17.5375893115754 17.3875214000599 17.2360442667222 17.0832173151915 16.929100056888 16.7737520730419 16.6172329769983 16.4596023768391 16.300919838356 16.141244848404 15.980636778667 15.8191548498648 15.6568580964312 15.4938053316905 15.3300551135609 15.1656657108106 15.0006950698927 14.8352007823832 14.6692400530473 14.5028696685548 14.3361459668689 14.1691248073274 14.0018615414382 13.834410984406 13.6668273874106 13.4991644106515 13.3314750971765 13.1638118475079 12.9962263950812 12.8287697825083 12.6614923386772 12.4944436566994 12.3276725727135 12.1612271455544 11.995154637296 11.8295014946725 11.6643133313849 11.4996349112965 11.3355101325216 11.171982012408 11.0090926734168 10.8468833298985
